ply
format ascii 1.0
comment PCL generated
element vertex 519
property float x
property float y
property float z
property uchar red
property uchar green
property uchar blue
property float nx
property float ny
property float nz
property float curvature
element camera 0
property float view_px
property float view_py
property float view_pz
property float x_axisx
property float x_axisy
property float x_axisz
property float y_axisx
property float y_axisy
property float y_axisz
property float z_axisx
property float z_axisy
property float z_axisz
property float focal
property float scalex
property float scaley
property float centerx
property float centery
property int viewportx
property int viewporty
property float k1
property float k2
end_header
-0.061075732 0.057419062 -0.016571177 0 0 0 0.89638913 0.34278616 -0.28104109 0.025616083
0.0046748281 0.0029448306 0.0099416915 0 0 0 -0.26141387 -0.95355362 -0.14966044 0.0041608284
0.059733286 0.058698636 -0.016653795 0 0 0 -0.809021 0.57208437 0.13492365 0.0027121888
-0.057999328 0.074395873 -0.047503814 0 0 0 0.85673988 -0.37650144 0.35248181 0.020191431
0.059473041 0.069442421 -0.035999026 0 0 0 0.068533361 -0.77853847 -0.62384385 0.017560594
0.015938491 0.079610124 0.024099436 0 0 0 -0.58226502 -0.66827917 -0.46300155 0.01083521
0.026719129 -0.048779592 0.0018132197 0 0 0 0.73199028 0.68122423 -0.011128617 0.013727174
0.014813993 0.086249724 -0.022219125 0 0 0 0.43550849 -0.432901 -0.7892586 0.0035021016
0.048470471 0.075551219 -0.020189926 0 0 0 0.82390761 -0.55462015 0.11650215 0.056357291
0.0101907 0.05767991 0.03664704 0 0 0 -0.27138272 0.072182961 -0.95976096 0.013914129
0.016013859 0.080097161 0.023454381 0 0 0 -0.54373717 -0.69994724 -0.46305904 0.0075596911
-0.042494889 0.069035619 -0.027029194 0 0 0 0.87200034 0.012313407 -0.48935035 0.058547363
0.0059156758 0.057191446 -0.014756037 0 0 0 0.58971542 -0.62725908 -0.50870591 0.017576082
-0.023930421 0.058735412 -0.010853831 0 0 0 0.63305539 0.12088697 0.76460922 0.0046785939
-0.010399316 0.010501083 0.027111216 0 0 0 0.25026429 0.6038062 -0.75682616 0.01171158
-0.048739191 0.057586201 -0.0040091905 0 0 0 0.99374813 -0.11073966 -0.014187578 0.01723415
-0.00096651388 0.075253479 -0.029992336 0 0 0 -0.072621606 -0.57183832 0.81714571 0.016746975
-0.02518861 -0.0010971228 0.023496186 0 0 0 0.11704013 0.39396363 -0.91164374 0.0015248535
0.050267946 0.061326213 -0.027786046 0 0 0 -0.5727604 -0.016545087 -0.81955582 0.080373242
-0.0083854059 0.063444503 -0.030655289 0 0 0 0.8567211 -0.21479723 0.46892539 0.070901707
0.021223065 0.092442296 -0.023334648 0 0 0 0.77653033 -0.57407016 -0.25970015 0.14238682
-0.012343287 0.018619465 0.027860787 0 0 0 0.48142752 0.25003058 -0.84006685 0.0029695008
-0.027428163 -0.045369476 0.023994187 0 0 0 0.2520723 0.61954576 0.74338591 0.0061680013
-0.038916927 -0.052772384 0.010956562 0 0 0 -0.010966484 0.99988252 0.010706636 0.00062597042
0.0041793082 0.019078311 -0.0038039435 0 0 0 0.68512112 -0.34036291 -0.64402026 0.016290246
0.045609172 0.070622474 -0.0081258472 0 0 0 0.36435199 -0.71976006 -0.59092563 0.0056037386
-0.012562959 0.057664029 -0.013167999 0 0 0 0.25019559 0.13586539 0.95861506 0.0055357763
-0.044994935 0.070965551 -0.019132182 0 0 0 -0.38506234 -0.89336926 -0.23155646 0.0032435169
0.016615035 0.03509067 0.00017763618 0 0 0 0.70930839 -0.68563116 -0.1636809 0.016562657
-0.018333647 0.054033037 -0.012244211 0 0 0 0.1359424 -0.39847624 0.90704811 0.011601917
-0.048565324 0.063791841 -0.0081258472 0 0 0 0.38629299 -0.45088986 -0.80465895 0.0071524302
-0.01363323 0.030048916 -0.0014955704 0 0 0 -0.64233297 -0.47211027 -0.60375512 0.0042587146
0.005465759 0.016934222 0.028840993 0 0 0 -0.25355411 0.32358527 -0.91159362 0.012200897
0.020045578 -0.046516072 0.0083479183 0 0 0 -0.84766966 0.4872233 -0.20992734 0.0058536269
0.0098968819 0.059538964 -0.012862154 0 0 0 -0.55433762 0.046505995 0.83099157 0.03298559
-0.0021891007 -0.0053287502 0.038671765 0 0 0 -0.1006784 -0.96910489 -0.22516587 0.034096733
0.041413315 0.055197995 -0.018688727 0 0 0 -0.54579067 0.066031016 -0.83531582 0.046681482
-0.0056488528 0.04485473 0.036569014 0 0 0 0.35124946 -0.64329034 0.68029511 0.024229022
0.025620217 -0.052963138 0.0035852531 0 0 0 -0.23775192 0.93096519 0.27708822 0.018328667
0.012549837 0.0068419822 0.025094312 0 0 0 -0.072958127 0.45062244 -0.88972831 0.005660139
0.025960509 0.066699706 0.016289443 0 0 0 -0.93457836 -0.18634668 -0.30304813 0.0047782683
-0.0025501328 0.052526135 -0.032139655 0 0 0 -0.45183057 -0.73521459 -0.50528067 0.0057886373
-0.038577858 -0.028234627 0.020894609 0 0 0 0.62677103 0.015633969 -0.77904665 0.0028110652
0.0010315996 -0.00091376639 0.03076588 0 0 0 0.47645405 -0.67608392 -0.56205159 0.015431069
0.052125555 0.08254341 -0.033426113 0 0 0 -0.81061745 -0.34935471 -0.46994752 0.048525847
0.0065786154 0.084039524 -0.018070979 0 0 0 0.56210858 -0.82668358 0.025066821 0.03325605
0.012738591 0.022021208 0.025975509 0 0 0 -0.7505812 0.33902588 -0.56717652 0.0036111414
-0.042563997 0.05876122 0.0031987138 0 0 0 0.78110152 -0.23553562 -0.57827622 0.0083467001
0.011402149 0.02078302 0.027035667 0 0 0 -0.72273743 0.29923844 -0.62298232 0.0015342527
-0.037905194 -0.053414255 -0.00065011444 0 0 0 -0.26296264 0.94007957 0.21702784 0.011612751
0.014056848 0.073967054 -0.007482619 0 0 0 -0.80812085 -0.5821678 0.089561351 0.010863752
-0.0041727303 0.067105949 -0.033854932 0 0 0 0.58068919 0.21162605 0.78613901 0.037831075
-0.0011870494 0.013920248 -0.003565731 0 0 0 -0.053980775 0.1446545 0.98800868 0.018353203
0.017933706 0.079167664 0.021401078 0 0 0 -0.69021279 -0.65724051 -0.30272323 0.00082093594
0.008745946 0.085973948 -0.0062630996 0 0 0 -0.70046526 -0.57714868 0.41981882 0.048976209
0.031070219 -0.036331534 0.02016703 0 0 0 -0.93538088 0.3433589 0.084659435 0.005485293
-0.010222509 0.092167757 -0.023540117 0 0 0 -0.71461976 -0.68633342 -0.13514818 0.0078691114
0.027335491 -0.020801786 0.002501148 0 0 0 -0.054725498 0.42493552 0.90356785 0.028290758
0.020474399 -0.029503208 0.028173003 0 0 0 0.16871923 -0.27517596 -0.94647348 0.0019997684
0.0081480267 0.0043984875 0.022796303 0 0 0 0.2535736 0.74586213 -0.61594653 0.0072822836
0.02185831 -0.048159245 0.0033715891 0 0 0 -0.45932251 0.45962653 -0.76010936 0.024961274
0.014894596 0.080498904 0.004111161 0 0 0 -0.70209306 -0.62201697 0.34664133 0.01263975
-0.028839692 -0.023569604 0.0011208476 0 0 0 -0.05820727 0.13464403 0.98918295 0.011603976
0.0055921767 0.064280264 -0.032938804 0 0 0 -0.66328239 -0.59036595 0.45991808 0.021847751
0.030777942 0.062024616 -0.0040278207 0 0 0 0.11154111 -0.81117725 0.57406449 0.001649044
-0.010123041 0.073260739 0.034709774 0 0 0 0.38933766 -0.33127639 -0.85946041 0.0031322411
-0.019191282 -0.003649052 0.0038792393 0 0 0 0.66475385 -0.56110483 -0.49321771 0.006631488
-0.025182826 0.0036646824 -0.0019572689 0 0 0 0.11480661 0.11678799 -0.98649883 0.0029559352
-0.055059928 0.055019703 -0.013175736 0 0 0 -0.5491823 -0.5974443 0.58434498 0.0079299537
0.06336087 0.071401916 -0.029573256 0 0 0 -0.99832326 0.0022041555 -0.057842966 0.01573569
0.00289285 0.054478262 -0.03985839 0 0 0 0.031512804 -0.96901828 -0.24497035 0.029130124
-0.037806761 0.063183278 -0.014401897 0 0 0 -0.62743396 -0.5144704 0.58450562 0.038095094
0.061212119 0.068566985 -0.01584457 0 0 0 -0.91719776 -0.39477542 -0.053858485 0.0015486112
-0.0041657058 0.054069895 -0.032925833 0 0 0 -0.79552048 -0.44705465 -0.40901011 0.050299518
0.028676635 -0.052384526 0.021692492 0 0 0 -0.66112489 0.38616276 -0.64326686 0.067712702
-0.032007426 0.046899155 -0.0064409124 0 0 0 0.1942441 -0.91414756 -0.35581383 0.0019600079
0.019582635 -0.046767782 0.0098964302 0 0 0 -0.83099306 0.44019121 -0.34012097 0.0080399932
0.023852434 -0.02727408 0.0049640844 0 0 0 0.29799816 0.51204312 0.8056109 0.0038154963
-0.037416052 -0.048674963 -0.0019868317 0 0 0 0.39245787 0.62703651 -0.67290562 0.04188706
0.05703558 0.080295809 -0.02037897 0 0 0 -0.69165617 -0.51720017 -0.50409883 0.0098545356
-0.011442426 0.052944496 0.037326761 0 0 0 0.29027358 0.15732083 -0.94392341 0.0053459145
-0.0072562718 0.059622522 -0.023563296 0 0 0 -0.88162011 -0.46867746 0.055564649 0.0023966872
0.0084674852 0.086649045 0.019318519 0 0 0 -0.3748233 -0.89406645 -0.24526057 0.00099717197
-0.0070557324 0.063601583 -0.034060761 0 0 0 0.58465391 -0.78995478 0.18480082 0.012355959
-0.029228177 0.056649383 0.017526524 0 0 0 0.95734328 0.25007823 -0.14475735 0.0072559938
-0.02519474 0.049953215 -0.0081842504 0 0 0 -0.30779535 -0.44000769 -0.8435967 0.015181386
-0.018976875 0.040836323 0.029181339 0 0 0 -0.47553399 -0.80516016 0.35437909 0.038905535
-0.017989671 0.02777889 0.02464178 0 0 0 0.85679382 -0.018536864 -0.51532578 0.0029440017
-0.01308465 0.085545115 0.0047386978 0 0 0 0.66258848 -0.66758901 0.33956054 0.002064165
3.5022873e-05 0.0095655899 0.032101441 0 0 0 -0.24060141 -0.55286038 -0.79778218 0.0081953211
0.047061119 0.074395873 -0.012452305 0 0 0 0.36829296 -0.83946073 -0.39958227 0.0066740648
-0.0021254804 -0.0018844865 0.051560994 0 0 0 -0.42519575 -0.80247658 -0.41861683 0.013708152
0.022839023 -0.040943991 0.014307046 0 0 0 -0.14613849 0.15104365 -0.97766531 0.063361987
-0.028143864 0.062125064 0.023177886 0 0 0 0.88605845 -0.14440636 -0.44050795 0.0012603489
0.035483032 0.04628722 -0.0063846861 0 0 0 -0.03807893 -0.89767998 -0.4389995 0.0083341114
-0.029697342 -0.053003497 0.018016189 0 0 0 0.12350118 0.99100405 -0.051559646 0.00026173223
0.00074876222 0.085706659 -0.01087743 0 0 0 -0.35132909 -0.93105757 0.098486491 0.0059446772
-0.0012238052 0.057057541 -0.04451821 0 0 0 -0.095626928 -0.86347598 -0.495242 0.0076005855
-0.055394724 0.060237586 -0.043225255 0 0 0 0.84033281 -0.51294708 -0.17528872 0.012503159
0.010002277 0.065596491 -0.015621583 0 0 0 0.94724828 -0.31985831 0.020284794 0.013288442
0.0046197129 0.058774892 0.038596138 0 0 0 -0.12771818 0.017072011 -0.99166358 0.0058511286
-0.024110364 0.013966806 0.023789681 0 0 0 0.31170353 -0.38966286 -0.86660475 0.0049823704
-0.055005547 0.076190136 -0.048004694 0 0 0 -0.0028290481 -0.98875397 -0.14952514 0.021795176
-0.0091458913 0.063280985 -0.022481054 0 0 0 -0.65550643 -0.72228849 0.22047801 0.033808649
0.011271732 0.063586242 -0.023657098 0 0 0 0.64939553 -0.75977504 -0.032052621 0.043295041
-0.0012155053 0.018613638 -0.0049869795 0 0 0 -0.091068484 -0.34360886 -0.93468684 0.014894473
0.01381914 -0.053170744 0.02252608 0 0 0 0.45190188 0.84039521 0.29920018 0.064234003
-0.049226429 0.070854791 -0.015675168 0 0 0 -0.033204149 -0.9117378 -0.4094283 0.01179909
0.015142637 -0.011425347 0.0086606005 0 0 0 -0.89639282 -0.40844974 -0.17218804 0.0048964573
0.040106904 0.060971472 0.0051086112 0 0 0 -0.50147784 -0.65080512 -0.57006383 0.011677029
-0.015666908 0.083598956 0.0066518909 0 0 0 0.75126386 -0.5572297 0.35369155 0.0065614968
-0.0026817839 -0.0025929187 0.053195152 0 0 0 -0.37031722 -0.76198751 -0.53126281 0.013761861
-0.018976875 0.025136698 0.0068827937 0 0 0 0.69283652 -0.29680574 0.65717864 0.014096263
0.051486522 0.073565587 -0.026994918 0 0 0 -0.83690041 -0.19139364 -0.51280212 0.0007092593
0.014830594 0.016256751 0.025148235 0 0 0 -0.46635696 -0.14772736 -0.87217414 0.0049654832
-0.037871122 0.049229149 -0.012050139 0 0 0 0.1350259 -0.8399936 -0.52552718 0.017634189
-0.019613978 0.07965593 0.013302818 0 0 0 0.6945774 -0.71892858 -0.026531778 0.014920895
0.045545802 0.061102487 -0.019389959 0 0 0 -0.78380257 0.0095237093 -0.62093705 0.0023706758
0.011543007 0.082711868 -0.022412602 0 0 0 0.5797379 -0.40058756 -0.70953053 0.007232029
-0.032420631 0.014198662 0.016849121 0 0 0 0.71452034 -0.62652904 -0.31132287 0.0084670298
0.018761592 0.029956002 0.015563315 0 0 0 -0.96952856 0.14595047 -0.19675595 0.0079321088
0.0050369394 0.0079084355 0.025321972 0 0 0 -0.46165925 0.62293863 -0.63152063 0.059546921
-0.0022529669 0.012860449 -0.0036663569 0 0 0 0.047520883 0.2016594 0.97830218 0.014254621
0.02819312 0.046712819 -0.0042664818 0 0 0 -0.3489764 -0.70100909 -0.62193394 0.015273407
-0.041601703 -0.049740199 0.00035954019 0 0 0 -0.51150185 0.64530861 -0.56739998 0.085144572
-0.011420804 0.043650761 0.035341062 0 0 0 0.31975076 0.34558374 -0.88223094 0.0077411802
-0.0083694514 0.071116246 -0.030710267 0 0 0 0.93513703 0.0024664861 0.35427782 0.017791048
0.010265756 0.02321434 0.02930777 0 0 0 -0.53271091 0.29623476 -0.79275727 0.0024516701
0.039150674 -0.052448735 0.0055682296 0 0 0 0.11108559 0.29163772 0.95005643 0.14990139
-0.020782527 0.028894069 0.016736677 0 0 0 0.98233122 -0.15178454 -0.10948449 0.0019410544
-0.0035235405 0.051687241 0.038528644 0 0 0 0.057517171 0.18218765 -0.98158008 0.0084355436
-0.035107739 0.010073131 0.0055963364 0 0 0 0.5859884 -0.6809296 0.43926352 0.0071780859
0.057897717 0.073340289 -0.040089294 0 0 0 -0.77497369 -0.48648018 -0.40342632 0.052252505
0.020266103 0.065524675 0.029161312 0 0 0 -0.67535317 -0.14591531 -0.72291547 0.0051814807
0.031659491 -0.029577734 0.014378529 0 0 0 -0.96040946 0.23286383 0.15293181 0.014465445
-0.033511583 -0.046102054 0.0043098796 0 0 0 0.73198932 0.53939515 -0.41622639 0.025556864
-0.029462205 0.046419162 0.0064417245 0 0 0 -0.52449667 -0.84527755 0.10202447 0.0095132673
0.021795772 -0.029523408 0.028361689 0 0 0 0.070413813 -0.27149984 -0.95985925 0.0013031056
-0.020687912 -0.0031966006 0.00039619274 0 0 0 0.57294124 -0.46168953 -0.67718619 0.026703425
0.015896689 -0.052518435 0.016745608 0 0 0 0.79355788 0.55462599 0.2503117 0.061074734
0.035219137 -0.048614934 0.0093913674 0 0 0 0.065544702 0.77429605 -0.62941992 0.04327324
-0.029940104 0.051656559 0.012317207 0 0 0 0.5941909 0.21891826 -0.77395862 0.01774906
0.031059431 -0.02524749 0.0063113351 0 0 0 -0.61627299 0.39022264 0.68405694 0.0043760445
-0.057613723 0.062715687 -0.050130043 0 0 0 -0.57413805 -0.70949864 0.40862837 0.1297605
-0.023693878 0.074388914 -0.0025512057 0 0 0 0.51102597 -0.68614846 0.5177381 0.067025781
0.0037533797 0.0094472859 0.028303038 0 0 0 -0.89503932 0.063898824 -0.44138595 0.0079597682
-0.045134783 0.06753476 -0.011482724 0 0 0 -0.25982505 -0.74207157 -0.61791641 0.0041006943
-0.01594452 0.087365255 -0.023864459 0 0 0 -0.24379183 -0.51646209 -0.82087296 0.065071896
-0.050084513 0.072732463 -0.030934995 0 0 0 -0.52142906 -0.82626152 0.21308123 0.051415324
0.057178568 0.081329837 -0.032870762 0 0 0 -0.45971021 -0.86144167 0.21583503 0.069827788
0.0067260726 0.039232776 0.031547774 0 0 0 -0.20150639 0.44945121 -0.87028086 0.017208472
0.0043200171 0.056428339 -0.031677566 0 0 0 0.85611045 -0.49668643 -0.1427498 0.036828935
-0.045771889 -0.05343131 0.012056875 0 0 0 -0.040994849 0.99880803 0.02649397 0.025016382
-0.025693096 0.059387218 0.026179608 0 0 0 0.79114354 0.18090917 -0.58426338 0.015273752
0.016679885 0.032727424 0.0064726188 0 0 0 0.81178874 -0.50290871 -0.29678595 0.017334597
0.019458596 -0.045745913 0.010999445 0 0 0 -0.76115745 0.49289307 -0.42153969 0.013972062
0.0022426562 0.0068655722 0.0040286891 0 0 0 0.11666665 -0.73697692 -0.66577321 0.040595893
-0.052648425 0.074223004 -0.023787031 0 0 0 -0.022242256 -0.96990675 -0.24245873 0.011186711
-0.023323823 -0.040527411 0.015673563 0 0 0 0.90844202 -0.41770673 -0.01594639 0.016993908
0.058150291 0.072364435 -0.013368027 0 0 0 -0.65991157 -0.72156835 -0.20941813 0.0016366441
-0.028576 0.0082268268 -0.00058587221 0 0 0 0.28428072 -0.44011444 0.85175335 0.0061273491
-0.0077139437 0.061237086 -0.029288318 0 0 0 -0.90386504 -0.41173181 -0.11621078 0.036471032
0.0030889502 0.0049273092 0.031762358 0 0 0 -0.98751175 -0.11636698 -0.10620384 0.010792166
0.0088963043 0.028083485 0.031165844 0 0 0 -0.37298042 0.068091199 -0.92533737 0.0049213427
-0.011544027 0.067677706 0.03583936 0 0 0 0.26035178 -0.36151522 -0.89527851 0.013536681
-0.042319015 0.049503602 -0.013281598 0 0 0 -0.30697915 -0.75251192 -0.58265734 0.0080830697
-0.020263331 -0.0083660502 0.015985202 0 0 0 -0.47433981 0.68585151 -0.55191433 0.0060006138
0.0087273885 0.061033327 -0.034020923 0 0 0 -0.97278225 -0.1602136 0.16741031 0.031496063
0.0082715172 0.067836307 -0.03072748 0 0 0 0.80304569 -0.35384211 -0.47949281 0.016079038
-0.046847541 0.050746404 -0.02355529 0 0 0 0.2276995 -0.92021549 -0.31836522 0.0050113425
-0.015679421 0.034857336 -0.0060803876 0 0 0 -0.53695619 -0.75619733 -0.37395668 0.0013734186
-0.0037168632 0.034589693 -0.0091226893 0 0 0 0.33595499 -0.012285563 0.94179797 0.0017727159
-0.011470054 0.080407269 -0.017962793 0 0 0 0.94130254 0.038057011 -0.33541194 0.039550908
-0.020890068 0.013166961 0.0012304855 0 0 0 0.13072047 -0.34277561 0.93027794 0.0093547339
0.032705806 -0.026042892 0.010146576 0 0 0 -0.96072483 0.23874287 0.14145571 0.010658501
0.033127915 -0.01922488 0.009832222 0 0 0 -0.98914206 -0.1444293 0.027170664 0.0064730523
-0.0056985952 -0.0090092737 0.057254422 0 0 0 0.52493793 -0.046365608 -0.8498767 0.067517713
-0.016403968 -0.0040778709 0.018676009 0 0 0 -0.51296467 0.66613787 -0.54141265 0.0016221813
-0.029522656 0.065225579 0.0063298452 0 0 0 0.75563717 -0.62849021 -0.1844247 0.077998005
0.019373618 -0.0097954459 0.019837838 0 0 0 0.33479607 0.37558237 -0.86420453 0.0044482434
-0.0026817839 0.0010679506 0.02902809 0 0 0 -0.42653131 -0.51260751 -0.74518764 0.0076982756
-0.059520312 0.056150638 -0.028337441 0 0 0 0.69696659 0.68283719 0.219023 0.011678901
-0.02755324 0.048937883 -0.0068393894 0 0 0 0.20334251 -0.69603151 -0.68861592 0.021074515
-0.022989273 -0.049103793 0.020168215 0 0 0 0.96674192 0.25272706 -0.039229564 0.0035850799
0.024029914 0.017370095 0.010982707 0 0 0 -0.52049834 -0.85160547 -0.062045515 0.009588371
-0.041865073 -0.013511867 0.0064617726 0 0 0 0.98313558 -0.18178715 -0.0199455 0.01925463
-0.025040507 -0.038766518 0.020397641 0 0 0 0.77922946 -0.077081338 0.62198067 0.0047555664
0.001163746 0.033394948 0.032141242 0 0 0 -0.013375108 0.13249171 -0.99109387 0.0016164533
-0.019319927 -0.0058773733 0.019153122 0 0 0 -0.46451092 0.73508459 -0.49384236 0.0029538316
0.051547226 0.065181039 -0.0021887906 0 0 0 0.19093108 -0.53214818 -0.82484156 0.0076264902
0.055136643 0.085152052 -0.035214528 0 0 0 -0.8310737 -0.16093807 0.53236777 0.03713274
0.0046146014 0.061174326 -0.043288939 0 0 0 -0.4306539 -0.79895914 0.41976374 0.0061332639
0.00094667857 0.04009039 -0.01140827 0 0 0 -0.36155376 -0.44577447 -0.81887972 0.020204972
-0.017080251 0.080115631 -0.0017822951 0 0 0 0.65824759 -0.74818403 0.083251528 0.011588183
0.052564282 0.084302485 -0.02211453 0 0 0 0.0034401298 -0.7045697 -0.70962644 0.018490061
0.014537889 0.089702293 -0.02711351 0 0 0 0.70093995 -0.6961208 -0.15523851 0.11887752
-0.027508559 -0.027180443 0.0025317736 0 0 0 0.23850913 -0.29897586 -0.92397338 0.0028239482
-0.003291158 0.014135621 -0.0034969223 0 0 0 0.17450318 0.21932234 0.95991999 0.014668005
-0.00337235 -0.0030058234 0.034219347 0 0 0 -0.47439718 -0.6135729 -0.63124919 0.0092878845
-0.061632928 0.057677798 -0.01905001 0 0 0 0.82522815 0.51600105 -0.22965498 0.03071616
0.028831741 -0.0046173497 0.019094003 0 0 0 -0.60918927 0.30873781 -0.73045832 0.0034932464
-0.027223805 0.05500697 0.023474537 0 0 0 0.8261193 0.074872218 -0.5584988 0.015111928
0.018242575 0.032371685 0.011979208 0 0 0 -0.97446853 -0.05710382 0.21714109 0.010088942
0.0056606764 0.068392403 -0.033547606 0 0 0 -0.29699811 0.24414404 0.9231391 0.073611163
-0.0065749409 -0.0045066881 0.052480467 0 0 0 0.97465587 -0.20422658 -0.091309682 0.022625651
0.044381015 0.052635256 -0.019136872 0 0 0 -0.36059746 -0.71290302 -0.60144722 0.0068732393
0.024024254 0.07141681 0.0052010193 0 0 0 -0.64135069 -0.74222106 0.19436349 0.004222915
0.015789812 -0.013485889 0.0098924562 0 0 0 -0.95397991 -0.28125504 -0.10400955 0.0038731536
0.029979279 -0.0012905539 0.019452212 0 0 0 -0.66632414 0.20785215 -0.71610725 0.0032796778
-0.041030385 -0.0059051244 0.0014049576 0 0 0 0.81155765 -0.58418578 -0.010052 0.010320328
0.017043848 -0.053359404 0.028340135 0 0 0 0.018758951 0.99600393 0.087317616 0.0049847676
-0.020606384 -0.0090521555 0.0095952898 0 0 0 0.54277879 -0.61475462 -0.57224816 0.009887307
0.009056516 0.082799226 -0.014558119 0 0 0 -0.4491047 -0.58038634 -0.67930609 0.016062478
-0.0077703134 0.023426404 -0.0039284923 0 0 0 0.75954568 0.33105952 0.55990171 0.012890372
-0.013926634 0.067973562 -0.022592859 0 0 0 0.94595218 0.11453757 0.30340672 0.007697436
0.0022257993 0.056611102 -0.043277025 0 0 0 0.036245272 -0.85218012 -0.52199161 0.01297134
0.012643806 0.00026443775 0.001023386 0 0 0 -0.5909583 -0.2821604 -0.75574714 0.0054774168
-0.025153518 0.073426388 0.017919855 0 0 0 0.8342216 -0.49167654 -0.24965674 0.0053348476
0.018052995 0.033449519 0.0085980659 0 0 0 -0.91302365 0.39871225 0.086118378 0.013494915
0.048694298 0.076098025 -0.020108927 0 0 0 0.74339402 -0.66518247 -0.06998314 0.055854019
0.026257522 -0.053001136 0.013315069 0 0 0 0.065842658 0.99735796 -0.03069016 0
0.01190916 -0.0054370514 0.0088124732 0 0 0 -0.83287168 -0.51243764 -0.20912281 0.0045876424
-0.048547406 0.057648119 -0.0046848874 0 0 0 0.97271585 -0.14636306 -0.18000482 0.031636458
0.062160585 0.06562449 -0.011979386 0 0 0 -0.92609805 -0.36533985 -0.094176717 0.0016719004
0.012839122 -0.049097568 0.027029144 0 0 0 -0.96987158 0.19365689 0.14780428 0.002781535
-0.0056428248 0.070026785 -0.034298293 0 0 0 0.19810364 0.042740226 0.97924882 0.06082182
0.015587226 0.058100775 0.034755971 0 0 0 -0.55698061 0.18726574 -0.80913788 0.0059207077
0.020697379 -0.021865251 0.025531895 0 0 0 0.24295238 -0.39763156 -0.88479567 0.0020244627
0.021760857 -0.052825898 0.016745608 0 0 0 -0.019127835 0.99965566 -0.017961904 0.000714914
-0.037416052 0.0026045458 0.016178923 0 0 0 0.86542749 -0.072062641 -0.4958249 0.0038932364
-0.018116541 0.054116338 0.034947746 0 0 0 0.60641092 0.12108946 -0.78587735 0.0059596603
-0.040846605 0.052526139 -0.016023863 0 0 0 0.39883509 -0.69865751 -0.59397668 0.062766343
0.023847768 0.05065364 -0.0062550497 0 0 0 0.22160231 -0.30228156 -0.92710203 0.0038277197
0.041915305 0.065819487 -0.0072277156 0 0 0 0.69460279 -0.53568697 -0.48017338 0.0053316099
0.012629633 0.083050057 0.00060941407 0 0 0 -0.65769202 -0.75303072 -0.019644931 0.0061735581
0.054080945 0.083401024 -0.035570204 0 0 0 -0.3499673 0.48178163 0.80337375 0.13693935
0.029440353 -0.013585804 0.016534746 0 0 0 -0.74463058 -0.15676385 -0.64880705 0.0012680737
-0.05361205 0.074884273 -0.053356953 0 0 0 0.53718573 -0.047013909 0.84215271 0.061042748
-0.051264368 0.074070722 -0.024547055 0 0 0 -0.12621535 -0.97178113 -0.19927678 0.0061845426
0.0090846159 0.070156373 -0.025937468 0 0 0 -0.90603608 -0.018413143 0.42279968 0.016903345
0.038484771 0.055099033 -0.011255541 0 0 0 -0.82113361 -0.16851036 -0.5452925 0.021493604
-0.016791737 0.064302146 0.034792587 0 0 0 0.48421198 -0.24965009 -0.83857828 0.00053323241
0.017225489 0.091743529 -0.02499266 0 0 0 0.53705347 -0.71046799 -0.45476231 0.0055485955
-0.0067992304 0.084634781 -0.010913166 0 0 0 0.57916486 -0.80658895 0.11824659 0.0087060295
0.036567643 -0.053857006 0.0098970979 0 0 0 -0.16376777 0.98626757 -0.021363882 0.049857579
0.039403502 -0.049922489 0.0075425119 0 0 0 0.5292803 0.79599923 -0.29367945 0.1113938
-0.00011799964 0.063059092 -0.043343682 0 0 0 0.23293848 -0.88018131 0.41354626 0.023064163
-0.03786435 -0.052598163 -0.0029533396 0 0 0 -0.65555984 0.62845689 0.41866842 0.029552141
0.014833642 -0.040951256 0.023553088 0 0 0 -0.96316934 -0.25003502 0.098930977 0.01265681
-8.5696418e-05 0.088758923 0.019007869 0 0 0 -0.03517082 -0.94002372 -0.33929101 0.0010134665
-0.0052546915 0.037517495 -0.011477663 0 0 0 0.44645479 -0.68740046 -0.57285142 0.0061402614
-0.030673008 0.06103389 -0.010172993 0 0 0 0.62688488 0.066774257 -0.77624518 0.013415519
0.055995621 0.057701599 -0.0040819719 0 0 0 -0.51628882 0.40011424 -0.75720173 0.0066962591
0.01296595 0.070107669 -0.019060714 0 0 0 -0.98275101 -0.047718607 0.17867108 0.0062806695
-0.0335567 -0.012404089 0.016145729 0 0 0 0.17541048 -0.29345274 -0.93974292 0.032366395
0.028569294 -0.044767421 0.0086486535 0 0 0 0.17378905 0.87310994 -0.45549563 0.0097529478
0.00907051 0.053062163 -0.012241566 0 0 0 0.088925816 -0.35315341 0.93132961 0.029469121
0.0046407124 0.08884158 0.014429986 0 0 0 -0.30542397 -0.89086097 -0.3362779 0.0052401097
-0.016348563 0.067919828 -0.01674596 0 0 0 0.83052498 0.0076251468 0.55692923 0.017859127
-0.014874933 0.05294304 0.036558863 0 0 0 0.34630659 0.13567513 -0.92825854 0.0037806015
-0.015647346 0.078187048 0.026929522 0 0 0 0.65920967 -0.57470912 -0.4849247 0.0070783324
0.0191762 0.016279085 0.0032471213 0 0 0 -0.60792255 -0.26452398 0.7486369 0.0084223552
0.011563518 -0.0021298649 0.019089894 0 0 0 0.69790119 0.4609924 -0.54810584 0.0067809806
0.015328577 0.051239677 0.033378363 0 0 0 -0.54176092 0.17321141 -0.82249194 0.00075609813
-0.039898992 -0.013254577 -0.0015090123 0 0 0 0.40124977 0.49325895 0.77181232 0.0099597815
0.0036243654 0.054963239 -0.026716372 0 0 0 0.59245497 -0.65715718 0.46598443 0.0076152449
-0.014572653 0.086197667 -0.019390501 0 0 0 -0.6527527 -0.00042679557 0.75757092 0.0040888935
0.016089953 0.081515901 0.019146992 0 0 0 -0.56044614 -0.82133013 -0.10638089 0.0057837171
-0.04078953 -0.030458769 0.0083931284 0 0 0 0.92417479 0.33906603 0.17588384 0.035812914
0.028697614 -0.046063997 0.006824851 0 0 0 0.076643363 0.81968838 -0.5676589 0.0092403898
-0.038421288 0.058529589 -0.020561572 0 0 0 0.89199317 -0.21395357 -0.39821097 0.018456846
-0.058458392 0.057595558 -0.031719573 0 0 0 0.62111205 0.5482462 0.56004095 0.0056812256
-0.015913835 0.0013356644 0.0029448108 0 0 0 0.77253723 -0.51781124 -0.36750212 0.0080547128
-0.020699941 0.0014753962 0.024942782 0 0 0 -0.17979115 0.22868372 -0.95675433 0.0057232454
0.016998231 -0.053183895 0.017986448 0 0 0 0.073056512 0.99731499 0.0050664051 0.015557755
-0.0081987726 0.081805572 0.029405072 0 0 0 0.40274283 -0.69852233 -0.59149373 0.0050342237
-0.0045795618 0.016379278 0.030140469 0 0 0 0.19791411 0.10571986 -0.97450155 0.0038430213
-0.026126388 0.049581718 0.023596561 0 0 0 0.78223938 0.26173204 -0.56532997 0.0046090744
0.0026505713 0.063724376 -0.040120449 0 0 0 -0.53927439 -0.75813228 0.36663157 0.019151941
-0.01340224 0.0032120394 0.022927677 0 0 0 -0.49753383 0.48036918 -0.72229189 0.0029756571
0.058531336 0.072457597 -0.019059993 0 0 0 -0.85789126 -0.46511638 -0.21837895 0.042768534
0.06081678 0.067490734 -0.023365384 0 0 0 -0.94588643 0.32246786 0.036240656 0.034370191
0.034048732 0.062846586 0.0098201279 0 0 0 -0.4351761 -0.7590338 -0.48424122 0.0075517269
-0.027918655 0.066800341 0.0030234293 0 0 0 0.93388313 -0.35756809 -0.0027161718 0.077510841
-0.044903874 0.069772452 -0.014984202 0 0 0 -0.37217134 -0.82927281 -0.4168874 0.0050388835
0.016825801 0.087260395 -0.019131746 0 0 0 0.50681835 0.061012901 0.85989106 0.0020329957
-0.0043970603 -0.00061760959 0.032904547 0 0 0 -0.66756743 -0.66814667 -0.3285327 0.0078353835
-0.041251484 -0.020371908 0.0029686603 0 0 0 0.67580146 0.22542244 0.70176715 0.022252161
-0.014195812 0.077303022 -0.0099304514 0 0 0 0.78743148 -0.60650879 0.10999484 0.0098598488
0.060305096 0.060072798 -0.017855855 0 0 0 -0.83766818 0.52705359 0.14327057 0.00088398327
-0.014904343 0.04030481 -0.013064126 0 0 0 -0.40160245 -0.45020288 -0.79751664 0.0023541502
0.011758699 0.082995743 0.021733439 0 0 0 -0.56143993 -0.75088942 -0.34777904 0.013206549
0.032910123 -0.017682869 0.00087934011 0 0 0 -0.74125206 0.43183792 0.51386893 0.0098598218
0.031969491 0.047125138 -0.0066130338 0 0 0 -0.31789094 -0.53038228 -0.78590077 0.037000466
0.030897716 -0.022908697 0.0050786552 0 0 0 -0.67483014 0.25795573 0.69142109 0.0025179901
0.048049267 0.070915818 -0.0076573789 0 0 0 0.20140529 -0.70700186 -0.67792654 0.0061665219
-0.025171684 -0.039892759 0.011064422 0 0 0 0.65241832 -0.46814367 -0.59597975 0.003759233
0.0038307358 0.05509904 -0.037187692 0 0 0 0.55636257 -0.73468828 0.38819289 0.035811592
0.034007199 -0.0021543119 0.013302819 0 0 0 -0.91958475 0.0090825688 -0.39278674 0.005230532
-0.036892947 -0.031936262 0.02177841 0 0 0 0.46154892 0.049799215 -0.8857159 0.0018215348
-0.040913895 -0.0042922804 0.0073634232 0 0 0 0.99947828 -0.0081098173 -0.031263728 0.0038517627
0.012671369 0.087210193 -0.029302482 0 0 0 0.76950574 -0.43317953 0.46927214 0.10586269
-0.0071102367 0.058693621 -0.027067773 0 0 0 -0.85528201 -0.48393613 0.18519861 0.0080599617
-0.0011094535 0.00059759524 0.04454837 0 0 0 -0.29665935 -0.880952 -0.368669 0.021233227
-0.030952046 0.015389333 0.018042274 0 0 0 0.56231725 -0.72917956 -0.38999572 0.013547318
-0.026268082 0.042421274 0.013303301 0 0 0 -0.58131558 -0.81365645 0.0059415111 0.0069310279
0.02517949 -0.0021481859 -0.0027103587 0 0 0 0.00051801396 -0.081385359 0.99668258 0.0025845505
0.050320212 0.088463932 -0.032744642 0 0 0 -0.22953251 0.058620438 0.97153407 0.099015392
-0.041644104 -0.015853876 0.011071113 0 0 0 0.89836031 -0.29747275 -0.32320088 0.0045968839
0.030337213 -0.027234055 0.024329279 0 0 0 -0.75101072 -0.041335605 -0.65899497 0.0011552101
0.016408229 -0.016942415 0.010956559 0 0 0 -0.99136835 -0.033269346 -0.12681432 0.018085947
0.048503928 0.062158048 -0.023134481 0 0 0 -0.81763703 0.082203634 -0.56983519 0.0080946712
0.0035454012 0.069230236 -0.033246029 0 0 0 -0.031618673 -0.56254256 0.82616353 0.037265625
-0.002339246 0.054964006 -0.035158031 0 0 0 -0.51136583 -0.79975635 -0.31447536 0.027986798
-0.030817932 0.06226211 -0.010100354 0 0 0 -0.61387271 -0.40158871 0.67962259 0.024952775
-0.0091645075 0.084333673 0.02407732 0 0 0 0.2730262 -0.8264637 -0.49235585 0.0095130187
0.015874023 0.094302833 -0.027089132 0 0 0 0.29398939 -0.61578113 0.73101568 0.10657128
0.020745227 -0.020485813 0.0044763903 0 0 0 -0.56075013 0.019604487 -0.82775295 0.01259739
0.025259044 0.070078366 0.0098931268 0 0 0 -0.84203351 -0.53659981 0.055137713 0.0051267762
-0.042356793 0.065897234 -0.0049180766 0 0 0 0.095393933 -0.94349945 -0.31734663 0.0016626858
0.012555554 -0.023836391 0.013332221 0 0 0 -0.92783231 0.35962492 -0.098980442 0.0046183527
0.010195372 0.047178529 0.034877069 0 0 0 -0.38301259 0.275006 -0.88185775 0.0069336495
0.056923941 0.058100775 -0.0045637777 0 0 0 -0.58750999 0.32252359 -0.7421661 0.0042860527
-0.0090615479 0.010568168 0.027366692 0 0 0 0.035903797 0.5357269 -0.84362769 0.0065169777
0.05842286 0.057295326 -0.018033339 0 0 0 -0.76176512 0.63715786 0.11723409 0.003582916
-0.03940469 0.054241415 -0.018417481 0 0 0 0.80870903 -0.5423696 -0.22765096 0.014642582
-0.020945003 0.050605033 0.030675532 0 0 0 0.80851597 0.2368141 -0.5387215 0.0033809906
0.016440291 -0.0096525056 0.0041312077 0 0 0 -0.81241947 -0.45364946 -0.36630145 0.0045836307
-0.062122114 0.062168404 -0.045494758 0 0 0 0.95826018 -0.010631993 0.28569984 0.017121235
-0.025837965 0.019357882 0.01117097 0 0 0 0.80485666 -0.55371749 0.21354792 0.0046123802
0.013952886 0.083946809 -0.017488388 0 0 0 0.47930375 0.037354279 0.87685376 0.0016963452
-0.027553236 -0.053738941 0.022534661 0 0 0 0.037279569 0.99925768 0.0097138518 0.0082168905
-0.037083246 -0.038023245 0.020604968 0 0 0 0.61412019 0.37053096 -0.69682366 0.0033371896
0.031638552 0.0081502413 0.0065397401 0 0 0 -0.77442873 -0.51584828 0.36627951 0.0021105248
-0.063189164 0.059761278 -0.021455696 0 0 0 0.95016807 0.3101261 -0.031660654 0.016819175
-0.06060905 0.058789644 -0.045637559 0 0 0 -0.34429976 -0.9063018 -0.24510148 0.0214664
-0.022647589 0.074624114 0.0029664331 0 0 0 0.64863968 -0.7387141 -0.18321572 0.0035997126
0.005465759 0.010073131 0.026442001 0 0 0 -0.25393206 0.43635228 -0.86320049 0.026737511
-0.010471981 0.088748366 -0.018833477 0 0 0 -0.15160099 -0.6511007 -0.74369687 0.014187635
-0.047874078 0.051682208 -0.0074983058 0 0 0 0.85268915 0.5207631 -0.041556127 0.022131784
-0.035473783 -0.033023097 0.022357019 0 0 0 0.30813411 0.028102949 -0.95092773 0.0025844597
0.013482086 -0.046763159 0.022534655 0 0 0 -0.95328635 0.25474486 -0.16232769 0.0036993118
-0.034391757 0.046196397 -0.004040787 0 0 0 -0.027538408 -0.98863381 -0.14779976 0.0025574209
-0.016403968 0.084453963 0.01159979 0 0 0 0.69116598 -0.71700978 0.090479217 0.00069108506
-0.016048096 0.015156407 0.026217263 0 0 0 0.42284375 0.086523175 -0.90206259 0.0042233812
0.019418845 0.095836788 -0.027403813 0 0 0 0.022873072 -0.63047367 0.77587354 0.098524489
-0.011498542 0.049452942 0.03662039 0 0 0 0.36695558 0.17636201 -0.91336745 0.0057193348
0.050260819 0.050810415 -0.016703999 0 0 0 0.2925753 -0.90523118 -0.30814984 0.0051384815
0.019832309 0.037852172 0.0029606754 0 0 0 -0.88840687 0.40509418 0.21594436 0.022282524
-0.01383106 0.042663313 -0.014408391 0 0 0 0.23056096 0.26704562 0.93569666 0.0020674397
-0.00018482882 -0.0010255888 0.046709828 0 0 0 -0.68685651 -0.65283859 -0.31942123 0.013555454
0.025283467 -0.046621501 0.0051536779 0 0 0 0.45699713 0.68633235 -0.56577528 0.0089146188
-0.0039682402 0.05703773 -0.043717749 0 0 0 -0.45343143 -0.72472376 -0.51882112 0.019895284
0.0046628658 0.0084321536 0.0018969319 0 0 0 -0.26177487 -0.48629615 -0.8336606 0.0033384559
0.028656188 -0.05347215 0.0085893162 0 0 0 0.11901756 0.99054337 -0.068255223 0.0010947397
-0.041202966 0.066291437 -0.0084605068 0 0 0 -0.032899935 -0.99642646 0.07779438 0.0039555072
-0.059952013 0.066662841 -0.049106561 0 0 0 0.85511225 0.2835857 0.43400696 0.056790344
-0.026360765 -0.042213999 0.012115932 0 0 0 0.72295481 -0.38042739 -0.57672471 0.017229374
0.044351179 0.049540579 0.0017531529 0 0 0 -0.93519366 0.3490862 0.059594624 0.0080150804
0.01032954 -0.0044122441 0.014415693 0 0 0 -0.85896254 -0.46330187 0.21802478 0.01774231
0.045793507 0.049179137 -0.0085467249 0 0 0 0.39441431 -0.91564751 -0.07763359 0.0014015898
0.021769783 -0.053519357 0.02708099 0 0 0 -0.10860335 0.9852854 -0.13197748 0.074539199
-0.036129605 -0.034134127 0.022050403 0 0 0 0.43520087 0.04946046 -0.89897382 0.0025642586
0.030889515 -0.035379138 0.018024141 0 0 0 -0.90685129 0.31463578 0.28040162 0.0041714609
-0.027562166 0.0014473485 0.023852039 0 0 0 0.34103179 0.28459743 -0.89593619 0.0020366353
-0.0035314811 0.027654666 0.031912688 0 0 0 0.17863089 0.23729327 -0.9548732 0.014973503
0.0058382894 0.073716894 -0.028662719 0 0 0 -0.46567711 -0.46621805 0.75218719 0.06010472
-0.024271457 -0.025038412 0.0032108685 0 0 0 0.56365126 -0.24750455 -0.78806013 0.0062721451
-0.022750478 0.018350536 0.02224735 0 0 0 0.46159369 -0.5197987 -0.71884668 0.0018158179
-0.012115783 -0.00021850642 0.018423544 0 0 0 -0.67352253 0.59141582 -0.44339001 0.011740025
0.007444005 0.085545115 -0.021224288 0 0 0 0.9605425 -0.27805153 0.0067438432 0.0049378858
0.018419025 -0.03056109 0.0078701312 0 0 0 0.23908135 0.42752552 0.87181544 0.010201804
0.061374199 0.070014454 -0.02277329 0 0 0 -0.90558815 -0.065747432 -0.4190315 0.0069461954
-0.005683511 0.065613642 -0.032089103 0 0 0 0.50703943 -0.13876891 0.85067868 0.047485191
0.023907002 -0.023819093 0.0031949147 0 0 0 -0.20094548 -0.32211748 -0.92512769 0.0084677022
-0.030788869 0.007929042 -8.4587991e-05 0 0 0 0.30631989 -0.58097225 0.75408185 0.003345876
-0.022800306 0.047125507 0.027120508 0 0 0 0.77388912 0.2485809 -0.58249742 0.0019848545
-0.019155547 0.0010312273 7.8042161e-05 0 0 0 0.44369939 -0.19003475 -0.87579548 0.0018705574
-0.015747251 0.039319616 -0.011876089 0 0 0 -0.49089783 -0.54704684 -0.67805529 0.0031253416
-0.045779496 -0.046525743 0.0070525389 0 0 0 -0.49809185 0.67320251 -0.54653716 0.016863199
-0.016228782 0.091684923 -0.02833624 0 0 0 -0.62318569 -0.7564382 -0.19859703 0.010809277
0.014785434 0.024277726 0.02482532 0 0 0 -0.79791743 0.3169302 -0.51272124 0.0030129266
-0.02437393 -0.04224268 0.016761201 0 0 0 0.93435448 -0.35631391 -0.0047058333 0.024406215
-0.062295966 0.064239651 -0.036157016 0 0 0 0.95005888 0.0079682441 -0.31196919 0.0076411883
-0.052620336 0.062192403 -0.0097597558 0 0 0 0.49060377 -0.10053214 -0.86556411 0.0031766251
-0.044798553 0.053806804 -0.024515636 0 0 0 0.66151941 0.070742622 -0.746584 0.032843459
-0.023038356 -0.038798582 0.014368729 0 0 0 0.92893761 -0.31792364 -0.18973511 0.0064573204
0.013111945 -0.034952775 0.019318519 0 0 0 -0.98195922 -0.18895224 0.0072963391 0.0034492051
0.028620042 0.058654852 0.015380499 0 0 0 -0.56669259 -0.24256349 -0.78741503 0.014500212
-0.028385596 0.069883935 0.013096057 0 0 0 0.88265502 -0.43243179 -0.18418165 0.0042086523
-0.001299049 0.063269265 -0.042010065 0 0 0 0.42992994 -0.82350492 0.37013492 0.010889669
-0.012531293 0.087357238 -0.025855022 0 0 0 -0.71233684 -0.63095117 -0.30737081 0.013678534
-0.00010078491 0.017405838 0.030375324 0 0 0 -0.056661479 0.17943159 -0.98213738 0.0050948444
0.023159778 0.0085557718 2.1701991e-05 0 0 0 -0.35074899 -0.41953278 0.83723795 0.005451425
-0.0046200464 0.024440475 -0.0060782391 0 0 0 -0.15237996 -0.31356162 -0.93726176 0.0047950884
-0.032050043 0.047492754 0.0064297384 0 0 0 -0.19836833 -0.90826577 0.36837935 0.0073591499
-0.0022529671 0.0069040228 0.012040139 0 0 0 0.24711761 -0.94170702 0.22829966 0.0128352
0.017119523 0.012658717 0.00096300949 0 0 0 -0.16462581 -0.20525926 0.96476263 0.013293186
-0.014803534 0.081522651 0.023525013 0 0 0 0.64011925 -0.65458834 -0.40219569 0.0060914154
0.035491124 0.044932928 -0.0029719351 0 0 0 0.061676875 -0.98420233 -0.16595674 0.0076371003
0.053357106 0.068901069 -0.028494706 0 0 0 -0.80212373 -0.13220592 -0.58233935 0.0026259078
-0.038399015 0.062388953 -0.01584457 0 0 0 0.88557154 0.42359242 -0.19061084 0.059679002
0.027112506 -0.047783017 0.024550971 0 0 0 -0.74706405 0.11869123 -0.65407008 0.0060944729
-0.0035840904 -0.0079589654 0.05268161 0 0 0 0.049347527 -0.82996374 -0.55563027 0.052264173
-0.044217072 0.05868094 0.0014545146 0 0 0 0.72327507 -0.22821841 -0.65175885 0.0083697215
0.001072698 0.08481697 -0.016653933 0 0 0 -0.32690516 -0.912251 0.24684225 0.0039004062
-0.050510217 -0.052609358 -0.0060214456 0 0 0 -0.056837752 0.3974205 0.91587472 0.17416891
-0.024622004 0.040519226 0.0075260201 0 0 0 -0.84938151 -0.5276466 0.011836978 0.0027720947
-0.02947101 -0.034107052 0.022964874 0 0 0 -0.19515826 -0.019150523 -0.9805848 0.0056718313
-0.024980331 -0.02251705 0.0023155059 0 0 0 0.54901612 -0.0065180673 -0.83578634 0.010429561
0.025620217 -0.0075084171 -0.002325732 0 0 0 0.089431569 0.14346686 0.98560607 0.0042479769
-0.023647802 0.040408053 0.0005562891 0 0 0 0.85411817 0.48332554 0.19203788 0.0022547187
-0.0075779469 0.0589584 -0.037285477 0 0 0 -0.86369139 -0.48519647 -0.13646095 0.022009611
0.019473821 -0.020658843 0.024379145 0 0 0 0.35865557 -0.50645995 -0.7841329 0.0060372553
0.017113779 -0.034026425 0.010968345 0 0 0 0.46156126 0.48586819 0.74222183 0.0029486972
-0.022805357 0.02308237 0.012080066 0 0 0 0.75519323 -0.64725113 0.10367814 0.01090615
0.012523392 0.092061989 -0.021204801 0 0 0 0.41607535 -0.77084613 -0.48236659 0.010853654
0.010475932 0.090469755 -0.021445123 0 0 0 0.67539823 -0.68962824 -0.2612474 0.0078810873
0.020045578 0.067531869 -0.0081258472 0 0 0 -0.75678748 -0.60040498 0.25843087 0.0029615676
-0.020101121 0.027761875 0.019854544 0 0 0 0.93318146 -0.1258751 -0.33664203 0.0061229886
-0.021345323 0.023152091 0.021033788 0 0 0 0.86039615 -0.1835659 -0.47541776 0.015167596
-0.029697336 -0.021196349 0.00095074263 0 0 0 0.10315557 -0.11703955 -0.98775542 0.01305858
0.043478098 0.066558875 -0.0052774874 0 0 0 0.47510964 -0.6219492 -0.62245482 0.013817454
-0.020571271 0.025529336 0.020197852 0 0 0 0.81519705 -0.40949664 -0.40959293 0.013489854
0.020259988 0.07433746 0.0021657906 0 0 0 -0.60092849 -0.7358855 0.31202137 0.0038901139
0.030085415 0.0062137665 0.0025946097 0 0 0 -0.64214528 -0.36533716 0.67392749 0.0052711763
0.047359802 0.070965312 -0.020990388 0 0 0 -0.7555638 0.08383511 -0.64968836 0.0028894134
0.014899758 0.0060708262 -0.00020288338 0 0 0 -0.29774901 0.12259941 -0.94673914 0.0025108727
-0.057204239 0.058751922 -0.039858397 0 0 0 0.30046028 -0.95336622 -0.028574364 0.016350713
-0.040064033 -0.021577306 0.019046985 0 0 0 0.76862079 -0.11814917 -0.6286993 0.0018534391
0.013604285 0.081701353 -0.0017165164 0 0 0 -0.83781868 -0.53050143 0.12895031 0.017995369
-0.029132264 0.054670226 0.014387107 0 0 0 0.93898457 0.21797915 -0.26606956 0.01667466
0.023504414 0.041376855 0.01652381 0 0 0 -0.94773328 0.27544105 -0.1610399 0.036285378
0.052030616 0.081499986 -0.042462949 0 0 0 -0.98428869 -0.11659272 0.13259684 0.19840248
0.0056325216 0.018969262 0.030109128 0 0 0 -0.24991328 0.40426823 -0.87983549 0.0084848311
0.032481298 0.057671949 -0.0069947629 0 0 0 -0.42174816 0.075439557 -0.90356922 0.010762647
0.022430269 0.058802467 -0.0081258472 0 0 0 -0.77627468 0.15460779 0.61114168 0.034580771
-0.0080074333 0.025593577 0.031447645 0 0 0 0.18300164 0.093891963 -0.9786188 0.0022029679
-0.042713802 -0.016895806 0.006519231 0 0 0 0.99477029 -0.065632209 0.078259185 0.0036126778
-0.0022529669 0.033431813 -0.009522438 0 0 0 0.15034044 0.038124431 0.98789895 0.0028330367
0.012160235 0.048666775 0.034717619 0 0 0 -0.43022099 0.25339371 -0.86643034 0.0026860151
0.015864599 0.056492697 0.033759397 0 0 0 -0.61214525 0.18129726 -0.76968133 0.010947211
-0.0026817839 -0.003649052 0.054463323 0 0 0 -0.38558736 -0.60881609 -0.69330043 0.011498733
-0.0035632446 0.010937915 -0.0026237823 0 0 0 -0.20751399 -0.57293749 -0.79289377 0.0095242122
-0.02852268 0.047346625 0.010834044 0 0 0 -0.74589956 -0.55470461 0.36869588 0.016117983
0.0090603251 0.084847614 0.022435246 0 0 0 -0.44276202 -0.74045569 -0.50565517 0.0087379972
-0.015747916 0.073498197 -0.014489502 0 0 0 0.89672238 -0.40290341 0.18318789 0.0052663907
-0.0043796347 -0.0061787129 0.04676288 0 0 0 0.54006445 0.83830881 0.074624151 0.015963314
-8.4371866e-05 0.074563421 -0.030293521 0 0 0 -0.063852474 -0.32266265 0.94435781 0.022898816
-0.022994883 0.076972738 0.010997617 0 0 0 0.67439622 -0.71102875 0.19906759 0.0064688674
-0.0011867182 0.0027590708 0.039890952 0 0 0 -0.044247441 -0.90437174 -0.42444539 0.011431904
0.016830187 0.070850201 -0.0064105694 0 0 0 -0.68247133 -0.7174933 0.139414 0.0059187966
0.011545745 0.018604109 0.025924627 0 0 0 -0.4845382 0.080880977 -0.87102294 0.033670194
-0.035486382 0.047270902 0.0051675178 0 0 0 -0.2715795 -0.86265534 0.42669705 0.0028650635
0.014963363 -0.027198311 0.008748143 0 0 0 -0.68729651 -0.21524903 -0.69375163 0.0029493412
0.016895145 0.078198656 0.024797911 0 0 0 -0.57014948 -0.62578708 -0.5322783 0.0068384898
-0.043419529 -0.053442169 0.0030061405 0 0 0 0.03290553 0.99547911 0.089098446 0.010385318
0.023864105 -0.020287637 0.025088076 0 0 0 0.060518142 -0.54066712 -0.83905709 0.002192005
0.020903213 -0.049203929 0.0033904833 0 0 0 -0.63891214 0.20233737 -0.74219334 0.013565487
-0.021011153 0.037517499 -0.00048133556 0 0 0 -0.82307142 -0.52577978 -0.21473038 0.010849056
-0.040069204 -0.0031559102 0.011046786 0 0 0 0.9229638 0.10758388 -0.3695451 0.0040133204
-0.050018914 -0.049273122 -0.0017340649 0 0 0 0.7746982 -0.617311 -0.13700269 0.037462741
-0.0022529669 0.090593323 0.010956559 0 0 0 -0.12586454 -0.9907341 -0.051030871 0.012815328
-0.015837507 0.022129517 0.025882756 0 0 0 0.63638943 0.10923849 -0.76359373 0.018444061
0.02653241 0.01561491 0.014387107 0 0 0 -0.48319504 -0.84730142 -0.22046046 0.0085089635
-0.013786392 0.066024333 -0.017944003 0 0 0 -0.12962477 -0.99155021 -0.0050670323 0.021184966
-0.056203056 0.052700847 -0.021407064 0 0 0 -0.60513723 -0.79597163 0.015429293 0.0041545737
-0.039238706 -0.0031976637 0.001264922 0 0 0 0.84770799 -0.17914857 0.49929646 0.022873634
-0.026610732 0.019078311 0.015690055 0 0 0 0.73495591 -0.65760124 -0.16553052 0.00080744759
-0.010829332 0.087735675 0.01100604 0 0 0 0.4729186 -0.88109356 0.0047121532 0.0064534089
-0.0061123292 0.057477027 -0.037034187 0 0 0 -0.8297649 -0.55480844 0.060645174 0.026472442
-0.0048351586 0.05591432 -0.024804614 0 0 0 -0.7483322 -0.65696102 0.091658458 0.0039707837
0.059868656 0.068249471 -0.00740274 0 0 0 -0.85044861 -0.40373361 -0.33724818 0.0070132967
-0.035495702 0.046332076 -0.0040613944 0 0 0 -0.14224809 -0.98383516 -0.10878367 0.0030123186
-0.0034985824 0.019641854 -0.0052897539 0 0 0 -0.17881471 -0.3386738 -0.92375612 0.0081766807
0.04605829 0.059792865 -0.019949282 0 0 0 -0.76273417 0.011832102 -0.64660388 0.0039293077
0.017472673 0.028512314 0.010401147 0 0 0 -0.82469207 0.09136951 0.55815285 0.0034728383
-0.0011094535 0.089836657 -0.00059858826 0 0 0 0.029120348 -0.99086034 0.13171129 0.0046321875
-0.027758319 -0.045604061 0.01019184 0 0 0 0.71378273 0.14566389 -0.68505204 0.014748221
0.025901005 0.014790129 0.0068827937 0 0 0 -0.63280261 -0.64517516 0.42814702 0.0028383671
-0.027728517 -0.052441593 0.01213173 0 0 0 -0.67368108 0.57190973 0.46805245 0.036009733
0.0035360795 0.05091669 0.038142059 0 0 0 -0.12858006 0.17086965 -0.97686785 0.0072796238
-0.027463466 0.067906789 0.00050645391 0 0 0 0.89360172 -0.40552256 0.19242497 0.028733827
-0.016592583 0.039661579 -0.011556393 0 0 0 -0.53681993 -0.53275979 -0.65421057 0.0041218139
0.02639541 0.067940868 0.006499595 0 0 0 -0.81090897 -0.5807783 0.071576789 0.0083834548
0.040805519 0.046384398 -0.0040041045 0 0 0 0.45726702 -0.8548696 -0.24516287 0.0065070302
-0.021120971 0.036563862 0.013315065 0 0 0 0.85023946 0.51611197 -0.10354357 0.0043986319
-0.0093410788 0.085116319 -0.0079553016 0 0 0 0.33785105 -0.218211 0.91555482 0.012364956
-0.028976524 0.066623546 0.0063947854 0 0 0 0.98985273 -0.020729814 0.14057672 0.052177835
-0.0057549798 0.0014514845 0.031731691 0 0 0 -0.91416734 -0.24901527 -0.31982711 0.020810841
-0.017002303 -0.0049355025 0.018460879 0 0 0 -0.48411193 0.70420039 -0.51936245 0.0036392496
0.025322432 -0.030485144 0.0066236528 0 0 0 0.064156592 0.58666462 0.80728477 0.0090070833
-0.023899885 -0.0091874171 0.0039595054 0 0 0 0.66826969 -0.57060081 -0.47731566 0.0015850831
-0.03541756 -0.023803506 0.022630762 0 0 0 0.23738728 -0.03800587 -0.97067136 0.0084377835
-0.043453775 -0.052251838 -0.005136766 0 0 0 0.95954144 0.240328 -0.14670593 0.092404559
-0.038702514 -0.033666328 0.0079754321 0 0 0 0.74033338 0.27651739 0.61273533 0.0073216818
0.018366644 0.056326408 -0.0085342061 0 0 0 -0.33472264 -0.031084981 0.94180387 0.042661365
0.014470938 0.034866307 -0.0061109546 0 0 0 0.65553433 -0.60649717 -0.44992897 0.0020983184
-0.029697336 -0.0090251602 0.017831152 0 0 0 0.1340567 0.59670097 -0.79118693 0.0050553605
0.050277255 0.07059864 -0.0071625905 0 0 0 -0.061170254 -0.64349979 -0.76299822 0.0034142446
-0.019427788 0.069052666 0.030660642 0 0 0 0.5641216 -0.34988996 -0.74789286 0.0043183686
0.020045578 -0.046102054 0.030137194 0 0 0 -0.34458432 -0.3792246 -0.85874939 0.0080522103
-0.050482169 0.076895222 -0.037542772 0 0 0 0.91183549 0.33427501 0.23836158 0.024653699
0.035949893 0.045631535 0.0040759817 0 0 0 0.3838284 -0.90918863 0.16140586 0.0049748505
0.055679478 0.05326917 -0.013357425 0 0 0 -0.7163893 0.69750661 -0.016458483 0.0071324958
0.016224032 -0.0089520626 0.0033217377 0 0 0 -0.76593137 -0.49466959 -0.41067153 0.0072124968
-0.010186103 0.084258676 -0.02893622 0 0 0 0.034025639 -0.62241185 -0.78195 0.12529142
0.060543884 0.069948457 -0.019017605 0 0 0 -0.85693806 -0.50977117 0.076094851 0.0094568981
-0.03410577 0.059909265 -0.012517449 0 0 0 0.59216791 0.14990465 -0.79174858 0.02013379
0.032434981 -0.052527439 0.018404711 0 0 0 -0.68066269 0.20509613 -0.70330215 0.046167921
0.012581461 0.066979222 -0.011918204 0 0 0 0.05240624 -0.80174857 -0.59535944 0.057214215
0.043344699 0.049238529 0.0043834741 0 0 0 0.3678675 -0.60014361 0.7102825 0.020284778
0.04873905 0.056616399 -0.0021934535 0 0 0 -0.63961524 0.16331954 -0.75114512 0.015114971
-0.01407932 0.065661497 0.035595834 0 0 0 0.38723519 -0.25817433 -0.88509601 0.00064657413
0.017285157 -0.046723112 0.014473247 0 0 0 -0.82005137 0.17234072 -0.54572374 0.0043537086
0.025072284 -0.031703424 0.0077074198 0 0 0 0.17036016 0.62709385 0.76008594 0.0097685736
0.054351043 0.073109388 -0.031967033 0 0 0 -0.852274 -0.35424629 -0.38488781 0.0030986883
-0.057999328 0.056814313 -0.031239733 0 0 0 0.60009217 0.60570437 0.52250516 0.0040592412
0.026731431 0.06581948 0.013529474 0 0 0 -0.88717437 -0.39502168 -0.23849435 0.0079815248
