ply
format ascii 1.0
comment PCL generated
element vertex 1187
property float x
property float y
property float z
property uchar red
property uchar green
property uchar blue
property float nx
property float ny
property float nz
property float curvature
element camera 0
property float view_px
property float view_py
property float view_pz
property float x_axisx
property float x_axisy
property float x_axisz
property float y_axisx
property float y_axisy
property float y_axisz
property float z_axisx
property float z_axisy
property float z_axisz
property float focal
property float scalex
property float scaley
property float centerx
property float centery
property int viewportx
property int viewporty
property float k1
property float k2
end_header
7.6599998 0.57999998 0 255 0 0 0 0 0 0
8.1800003 5.4200001 0 255 0 0 0 0 0 0
6.3499999 2.3299999 0 255 0 0 0 0 0 0
0.77999997 1.1799999 0 255 0 0 0 0 0 0
3.6600001 7.7399998 0 255 0 0 0 0 0 0
6.5500002 2.4200001 0 255 0 0 0 0 0 0
9.6999998 8.8500004 0 255 0 0 0 0 0 0
8.2600002 5.6100001 0 255 0 0 0 0 0 0
1.23 6.6700001 0 255 0 0 0 0 0 0
6.8099999 6.5500002 0 255 0 0 0 0 0 0
0.52999997 7.0700002 0 255 0 0 0 0 0 0
9.6800003 3.5 0 255 0 0 0 0 0 0
8.46 4.79 0 255 0 0 0 0 0 0
0.91000003 6.0500002 0 255 0 0 0 0 0 0
8.2299995 1.08 0 255 0 0 0 0 0 0
9.5600004 8.1000004 0 255 0 0 0 0 0 0
0.43000001 8.9300003 0 255 0 0 0 0 0 0
6.6500001 9.6400003 0 255 0 0 0 0 0 0
1.75 5.7399998 0 255 0 0 0 0 0 0
2.8099999 0.52999997 0 255 0 0 0 0 0 0
9.6700001 6.9099998 0 255 0 0 0 0 0 0
1.63 4.0799999 0 255 0 0 0 0 0 0
7.98 5.9000001 0 255 0 0 0 0 0 0
2.22 4.5599999 0 255 0 0 0 0 0 0
8.0100002 2.6199999 0 255 0 0 0 0 0 0
4.9699998 7.5999999 0 255 0 0 0 0 0 0
6.0599999 2.25 0 255 0 0 0 0 0 0
9.5600004 9.4499998 0 255 0 0 0 0 0 0
3.6099999 3.3399999 0 255 0 0 0 0 0 0
5.6900001 3.9400001 0 255 0 0 0 0 0 0
3.4000001 6.5599999 0 255 0 0 0 0 0 0
6.7199998 3.8499999 0 255 0 0 0 0 0 0
7.9200001 1.84 0 255 0 0 0 0 0 0
1.63 7.0700002 0 255 0 0 0 0 0 0
1.92 9.9200001 0 255 0 0 0 0 0 0
4.8600001 9.1499996 0 255 0 0 0 0 0 0
9.1400003 6.46 0 255 0 0 0 0 0 0
9.6899996 5.5999999 0 255 0 0 0 0 0 0
5.23 0.34 0 255 0 0 0 0 0 0
4.6799998 6.5700002 0 255 0 0 0 0 0 0
3.1500001 8.9200001 0 255 0 0 0 0 0 0
6.4499998 6.0799999 0 255 0 0 0 0 0 0
2.6600001 9.7299995 0 255 0 0 0 0 0 0
3.9100001 2.3900001 0 255 0 0 0 0 0 0
2.1099999 8.8100004 0 255 0 0 0 0 0 0
0.36000001 4.5799999 0 255 0 0 0 0 0 0
7.6900001 0.57999998 0 255 0 0 0 0 0 0
5.5799999 5.4299998 0 255 0 0 0 0 0 0
4.4699998 0.050000001 0 255 0 0 0 0 0 0
1.59 5.02 0 255 0 0 0 0 0 0
1.11 3.3499999 0 255 0 0 0 0 0 0
2.6199999 8.1800003 0 255 0 0 0 0 0 0
2.76 5.21 0 255 0 0 0 0 0 0
3.9000001 8.7700005 0 255 0 0 0 0 0 0
2.53 4.4099998 0 255 0 0 0 0 0 0
8.6300001 1.45 0 255 0 0 0 0 0 0
0.83999997 6.3099999 0 255 0 0 0 0 0 0
1.03 0.72000003 0 255 0 0 0 0 0 0
6.8299999 7.2600002 0 255 0 0 0 0 0 0
8.96 5.29 0 255 0 0 0 0 0 0
0.79000002 5.7800002 0 255 0 0 0 0 0 0
0.49000001 3.4000001 0 255 0 0 0 0 0 0
4.8200002 0.94999999 0 255 0 0 0 0 0 0
0.67000002 7.5300002 0 255 0 0 0 0 0 0
6.73 7.0799999 0 255 0 0 0 0 0 0
5.0100002 6.8699999 0 255 0 0 0 0 0 0
5.4099998 0.41999999 0 255 0 0 0 0 0 0
0.80000001 6.48 0 255 0 0 0 0 0 0
6.7800002 6.8000002 0 255 0 0 0 0 0 0
2.2 10 0 255 0 0 0 0 0 0
6.9099998 3.51 0 255 0 0 0 0 0 0
2.8099999 6.71 0 255 0 0 0 0 0 0
3.4200001 3.0899999 0 255 0 0 0 0 0 0
7.9400001 7.5 0 255 0 0 0 0 0 0
6.3200002 8.4700003 0 255 0 0 0 0 0 0
7.2800002 6.1300001 0 255 0 0 0 0 0 0
7.3299999 4.29 0 255 0 0 0 0 0 0
9.0100002 2.49 0 255 0 0 0 0 0 0
5.6999998 3.96 0 255 0 0 0 0 0 0
7.6100001 8.3999996 0 255 0 0 0 0 0 0
9.5200005 5.9200001 0 255 0 0 0 0 0 0
9.7600002 0.60000002 0 255 0 0 0 0 0 0
2.1700001 9.3000002 0 255 0 0 0 0 0 0
1.9 9.1400003 0 255 0 0 0 0 0 0
9.6999998 2.3199999 0 255 0 0 0 0 0 0
4.5799999 4.9899998 0 255 0 0 0 0 0 0
7.25 2.1800001 0 255 0 0 0 0 0 0
9.0600004 3.4100001 0 255 0 0 0 0 0 0
2.8800001 7.6399999 0 255 0 0 0 0 0 0
3.73 9.0500002 0 255 0 0 0 0 0 0
0.72000003 8.71 0 255 0 0 0 0 0 0
1.88 3.8399999 0 255 0 0 0 0 0 0
1.65 6.54 0 255 0 0 0 0 0 0
0.30000001 8.5299997 0 255 0 0 0 0 0 0
9.2600002 1.74 0 255 0 0 0 0 0 0
2.4000001 1.34 0 255 0 0 0 0 0 0
2.5799999 5.0300002 0 255 0 0 0 0 0 0
5.8000002 6.1599998 0 255 0 0 0 0 0 0
2.6500001 9.2799997 0 255 0 0 0 0 0 0
7.4099998 3.6099999 0 255 0 0 0 0 0 0
8.1899996 5.0900002 0 255 0 0 0 0 0 0
3.0899999 6.1300001 0 255 0 0 0 0 0 0
8.3900003 6.0700002 0 255 0 0 0 0 0 0
5.54 7.6900001 0 255 0 0 0 0 0 0
6.73 7.8499999 0 255 0 0 0 0 0 0
7.0599999 7.3000002 0 255 0 0 0 0 0 0
8.2700005 1.24 0 255 0 0 0 0 0 0
9.4799995 2.3900001 0 255 0 0 0 0 0 0
6.6100001 2.1900001 0 255 0 0 0 0 0 0
4.0999999 2.23 0 255 0 0 0 0 0 0
6.8499999 0.83999997 0 255 0 0 0 0 0 0
2.1300001 0.61000001 0 255 0 0 0 0 0 0
1.1900001 9.7399998 0 255 0 0 0 0 0 0
7.8200002 0.13 0 255 0 0 0 0 0 0
7.3200002 3.46 0 255 0 0 0 0 0 0
6.5799999 8.3100004 0 255 0 0 0 0 0 0
3.8800001 1.13 0 255 0 0 0 0 0 0
4.5100002 7.75 0 255 0 0 0 0 0 0
2.3199999 6.71 0 255 0 0 0 0 0 0
0.88999999 3.95 0 255 0 0 0 0 0 0
2.71 1.77 0 255 0 0 0 0 0 0
3.3399999 3.53 0 255 0 0 0 0 0 0
6.3499999 3.72 0 255 0 0 0 0 0 0
9.8599997 9.3100004 0 255 0 0 0 0 0 0
0.54000002 5.75 0 255 0 0 0 0 0 0
6.8800001 6.27 0 255 0 0 0 0 0 0
3.1400001 1.01 0 255 0 0 0 0 0 0
7.5599999 0.75999999 0 255 0 0 0 0 0 0
5.5599999 0.75999999 0 255 0 0 0 0 0 0
2.5599999 5.8099999 0 255 0 0 0 0 0 0
0.52999997 0.81999999 0 255 0 0 0 0 0 0
2.3900001 4.6199999 0 255 0 0 0 0 0 0
8.6199999 6.0500002 0 255 0 0 0 0 0 0
7.6799998 5.5599999 0 255 0 0 0 0 0 0
9.6599998 4.6900001 0 255 0 0 0 0 0 0
4.7600002 9.5900002 0 255 0 0 0 0 0 0
8.8000002 7.5500002 0 255 0 0 0 0 0 0
0.63 8.3199997 0 255 0 0 0 0 0 0
6.3000002 9.6599998 0 255 0 0 0 0 0 0
6.5100002 2.48 0 255 0 0 0 0 0 0
1.4400001 1.8099999 0 255 0 0 0 0 0 0
4.54 2.6099999 0 255 0 0 0 0 0 0
4.6700001 3.1099999 0 255 0 0 0 0 0 0
4.5900002 4.6799998 0 255 0 0 0 0 0 0
6.1300001 8.4099998 0 255 0 0 0 0 0 0
6.1799998 1.04 0 255 0 0 0 0 0 0
0.56 2.0599999 0 255 0 0 0 0 0 0
0.92000002 4.27 0 255 0 0 0 0 0 0
2.4200001 0.82999998 0 255 0 0 0 0 0 0
3.51 5.1599998 0 255 0 0 0 0 0 0
7.5300002 9.1300001 0 255 0 0 0 0 0 0
5.21 7.6199999 0 255 0 0 0 0 0 0
3.1900001 5.5 0 255 0 0 0 0 0 0
1.15 8.8699999 0 255 0 0 0 0 0 0
3.3299999 8.4099998 0 255 0 0 0 0 0 0
3.3699999 0.13 0 255 0 0 0 0 0 0
5.4699998 2.49 0 255 0 0 0 0 0 0
5.6599998 9.9200001 0 255 0 0 0 0 0 0
9.21 1.85 0 255 0 0 0 0 0 0
8.1300001 2.8800001 0 255 0 0 0 0 0 0
1.51 5.6799998 0 255 0 0 0 0 0 0
4.8600001 2.4300001 0 255 0 0 0 0 0 0
2.24 5.79 0 255 0 0 0 0 0 0
1.91 9.9200001 0 255 0 0 0 0 0 0
2.3 6.02 0 255 0 0 0 0 0 0
4.9699998 3.53 0 255 0 0 0 0 0 0
4.3499999 5 0 255 0 0 0 0 0 0
3.3699999 1.42 0 255 0 0 0 0 0 0
1.6799999 3.45 0 255 0 0 0 0 0 0
4.4400001 1.74 0 255 0 0 0 0 0 0
4.5300002 3.72 0 255 0 0 0 0 0 0
8.0699997 1.42 0 255 0 0 0 0 0 0
9.0299997 9.3900003 0 255 0 0 0 0 0 0
0.25 6.1199999 0 255 0 0 0 0 0 0
1.09 3.0599999 0 255 0 0 0 0 0 0
6.1599998 4.2199998 0 255 0 0 0 0 0 0
9.96 5.1599998 0 255 0 0 0 0 0 0
1.53 9.1300001 0 255 0 0 0 0 0 0
6.9400001 5 0 255 0 0 0 0 0 0
8.1999998 9.2700005 0 255 0 0 0 0 0 0
8.75 9.6000004 0 255 0 0 0 0 0 0
2.4000001 9.5900002 0 255 0 0 0 0 0 0
0.40000001 9 0 255 0 0 0 0 0 0
6.75 5.29 0 255 0 0 0 0 0 0
5.5700002 6.6700001 0 255 0 0 0 0 0 0
2.1400001 8.1000004 0 255 0 0 0 0 0 0
2.9300001 9.9099998 0 255 0 0 0 0 0 0
1.3099999 3.1700001 0 255 0 0 0 0 0 0
6.0900002 6.8899999 0 255 0 0 0 0 0 0
1.03 1.14 0 255 0 0 0 0 0 0
1.22 3.71 0 255 0 0 0 0 0 0
5.0700002 0.5 0 255 0 0 0 0 0 0
7.8899999 2.1800001 0 255 0 0 0 0 0 0
3.8800001 8.9799995 0 255 0 0 0 0 0 0
7.3000002 8.5500002 0 255 0 0 0 0 0 0
1.03 3.5899999 0 255 0 0 0 0 0 0
4.5100002 9.71 0 255 0 0 0 0 0 0
0.28 1.58 0 255 0 0 0 0 0 0
9.8299999 3.6900001 0 255 0 0 0 0 0 0
3.26 8.5600004 0 255 0 0 0 0 0 0
1.09 5.2399998 0 255 0 0 0 0 0 0
0.58999997 0.41999999 0 255 0 0 0 0 0 0
3.4100001 7.6999998 0 255 0 0 0 0 0 0
7.52 0.51999998 0 255 0 0 0 0 0 0
0.85000002 1.55 0 255 0 0 0 0 0 0
7.48 1.54 0 255 0 0 0 0 0 0
7.0300002 4.5900002 0 255 0 0 0 0 0 0
9.6499996 9.1899996 0 255 0 0 0 0 0 0
6.6700001 6.9099998 0 255 0 0 0 0 0 0
4.27 4.4499998 0 255 0 0 0 0 0 0
5.1500001 3.77 0 255 0 0 0 0 0 0
2.6900001 1.86 0 255 0 0 0 0 0 0
2.5999999 6.6300001 0 255 0 0 0 0 0 0
5.7199998 7.0799999 0 255 0 0 0 0 0 0
8.0699997 0.12 0 255 0 0 0 0 0 0
1.88 1.49 0 255 0 0 0 0 0 0
0.029999999 9.3999996 0 255 0 0 0 0 0 0
2.9000001 5.8699999 0 255 0 0 0 0 0 0
2.1199999 6.3600001 0 255 0 0 0 0 0 0
4.1900001 4.2399998 0 255 0 0 0 0 0 0
7.77 5.3800001 0 255 0 0 0 0 0 0
1.1 3.22 0 255 0 0 0 0 0 0
7.21 7.6300001 0 255 0 0 0 0 0 0
3.03 8.0699997 0 255 0 0 0 0 0 0
3.1700001 4.3099999 0 255 0 0 0 0 0 0
4.5 4.6900001 0 255 0 0 0 0 0 0
6.25 4.48 0 255 0 0 0 0 0 0
8.5500002 8.6999998 0 255 0 0 0 0 0 0
1.54 0.79000002 0 255 0 0 0 0 0 0
2.6199999 0.25999999 0 255 0 0 0 0 0 0
2.3699999 1.1 0 255 0 0 0 0 0 0
7.3200002 7.3699999 0 255 0 0 0 0 0 0
9.1000004 8.8900003 0 255 0 0 0 0 0 0
9.5699997 8.21 0 255 0 0 0 0 0 0
4.4000001 4.23 0 255 0 0 0 0 0 0
7.21 0.1 0 255 0 0 0 0 0 0
4.1399999 4.5599999 0 255 0 0 0 0 0 0
3.48 1.37 0 255 0 0 0 0 0 0
9.6899996 0.60000002 0 255 0 0 0 0 0 0
1.5 3.21 0 255 0 0 0 0 0 0
1.86 6.8699999 0 255 0 0 0 0 0 0
1.0700001 8.1300001 0 255 0 0 0 0 0 0
2.8900001 2.97 0 255 0 0 0 0 0 0
5 4.3099999 0 255 0 0 0 0 0 0
7.4299998 7.4499998 0 255 0 0 0 0 0 0
6.9400001 4.6900001 0 255 0 0 0 0 0 0
6.0100002 7.3299999 0 255 0 0 0 0 0 0
2.6900001 9.7799997 0 255 0 0 0 0 0 0
3.1400001 1.52 0 255 0 0 0 0 0 0
8.4200001 7.9000001 0 255 0 0 0 0 0 0
2.1500001 0.20999999 0 255 0 0 0 0 0 0
3.52 7.52 0 255 0 0 0 0 0 0
7.5100002 0.74000001 0 255 0 0 0 0 0 0
0.27000001 3.1300001 0 255 0 0 0 0 0 0
3.5899999 7.75 0 255 0 0 0 0 0 0
5.02 1.03 0 255 0 0 0 0 0 0
4.8000002 4.4899998 0 255 0 0 0 0 0 0
2.5899999 5.1599998 0 255 0 0 0 0 0 0
1.27 7.9899998 0 255 0 0 0 0 0 0
6.8800001 1.96 0 255 0 0 0 0 0 0
6.5999999 9.3000002 0 255 0 0 0 0 0 0
4.6599998 5.8299999 0 255 0 0 0 0 0 0
6.6900001 3.9100001 0 255 0 0 0 0 0 0
4.79 3.22 0 255 0 0 0 0 0 0
4.0500002 6.6999998 0 255 0 0 0 0 0 0
8.7799997 2.6300001 0 255 0 0 0 0 0 0
3.23 4.9499998 0 255 0 0 0 0 0 0
3.1400001 8.8500004 0 255 0 0 0 0 0 0
2.99 7.7199998 0 255 0 0 0 0 0 0
7.1599998 7.04 0 255 0 0 0 0 0 0
4.6700001 7.0700002 0 255 0 0 0 0 0 0
1.9 6.2399998 0 255 0 0 0 0 0 0
2.2 1.9400001 0 255 0 0 0 0 0 0
2.3399999 7.5599999 0 255 0 0 0 0 0 0
1.51 6.77 0 255 0 0 0 0 0 0
4.7199998 5.1900001 0 255 0 0 0 0 0 0
2.96 3.9000001 0 255 0 0 0 0 0 0
5.8800001 8.4899998 0 255 0 0 0 0 0 0
3.4000001 9.1400003 0 255 0 0 0 0 0 0
5.5599999 7.3000002 0 255 0 0 0 0 0 0
9.8100004 4.5300002 0 255 0 0 0 0 0 0
9.9799995 1.48 0 255 0 0 0 0 0 0
0 2.28 0 255 0 0 0 0 0 0
9.8100004 4.1300001 0 255 0 0 0 0 0 0
3.3099999 9.4099998 0 255 0 0 0 0 0 0
6.6100001 6.21 0 255 0 0 0 0 0 0
0.44999999 5.0999999 0 255 0 0 0 0 0 0
1.4400001 0.95999998 3.8499999 0 0 255 0 0 0 0
5.6900001 4.3499999 3.9200001 0 0 255 0 0 0 0
8.5100002 0.25999999 2.4000001 0 0 255 0 0 0 0
5.9699998 6.2600002 7.48 0 0 255 0 0 0 0
5.1100001 5.4000001 8.8199997 0 0 255 0 0 0 0
8.5900002 9.8500004 1.71 0 0 255 0 0 0 0
2.8299999 5.3699999 2.02 0 0 255 0 0 0 0
8.7399998 5.1399999 6.0599999 0 0 255 0 0 0 0
1.9299999 5.0100002 1.73 0 0 255 0 0 0 0
5.79 5.7399998 1.99 0 0 255 0 0 0 0
1.89 1.85 9.5200005 0 0 255 0 0 0 0
0.63999999 2.71 4.6599998 0 0 255 0 0 0 0
9.7399998 7.4200001 1.21 0 0 255 0 0 0 0
2.46 6.7399998 3.4000001 0 0 255 0 0 0 0
5.5300002 10 8.8699999 0 0 255 0 0 0 0
8.3999996 7.73 8.0699997 0 0 255 0 0 0 0
1.5599999 7.8800001 9.6499996 0 0 255 0 0 0 0
7.8499999 9.6800003 6.54 0 0 255 0 0 0 0
8.2799997 6.9400001 2.3199999 0 0 255 0 0 0 0
2.1900001 4.1500001 1.92 0 0 255 0 0 0 0
9.1400003 9.2399998 2.0699999 0 0 255 0 0 0 0
3.8800001 1.97 6.8699999 0 0 255 0 0 0 0
0.5 5.3299999 0.25 0 0 255 0 0 0 0
8.04 6.8099999 7.0300002 0 0 255 0 0 0 0
9.04 2.76 7.71 0 0 255 0 0 0 0
2.8199999 0.76999998 4.9299998 0 0 255 0 0 0 0
7.8899999 2.1199999 1.38 0 0 255 0 0 0 0
1.41 9.8000002 3.21 0 0 255 0 0 0 0
3.77 3.52 6.3600001 0 0 255 0 0 0 0
8.8400002 5.4099998 1.33 0 0 255 0 0 0 0
8.9200001 5.2600002 1.83 0 0 255 0 0 0 0
9.4899998 6.5799999 0.89999998 0 0 255 0 0 0 0
6.0900002 5.23 5.4299998 0 0 255 0 0 0 0
4.04 6.52 6.48 0 0 255 0 0 0 0
4.8800001 2.5599999 0.75 0 0 255 0 0 0 0
8.2600002 1.54 2.49 0 0 255 0 0 0 0
6.9099998 5.98 1.87 0 0 255 0 0 0 0
8.0500002 6.6700001 2.8 0 0 255 0 0 0 0
7.1500001 3.5699999 1.4400001 0 0 255 0 0 0 0
2.5699999 8.5200005 3.3399999 0 0 255 0 0 0 0
8.7799997 7.7399998 5.75 0 0 255 0 0 0 0
1.52 1.34 4.8099999 0 0 255 0 0 0 0
7.1900001 5.5500002 5.5999999 0 0 255 0 0 0 0
7.52 2.3099999 1.0599999 0 0 255 0 0 0 0
4.5599999 6.7800002 0.22 0 0 255 0 0 0 0
4.1700001 7.3400002 2.5 0 0 255 0 0 0 0
9.5900002 7.6999998 1.3099999 0 0 255 0 0 0 0
6.9000001 5.7199998 3.27 0 0 255 0 0 0 0
3.3699999 1.59 1.09 0 0 255 0 0 0 0
6.96 9.7200003 4.2199998 0 0 255 0 0 0 0
2.22 7.8099999 8.79 0 0 255 0 0 0 0
0 5.6900001 1.64 0 0 255 0 0 0 0
8.4799995 4.48 1.6900001 0 0 255 0 0 0 0
4.7800002 5.1700001 2.1500001 0 0 255 0 0 0 0
4.5500002 0.029999999 0.56999999 0 0 255 0 0 0 0
4.04 2.3499999 8.8999996 0 0 255 0 0 0 0
2.76 0.73000002 4.52 0 0 255 0 0 0 0
7.8000002 4.5700002 3.8399999 0 0 255 0 0 0 0
9.2299995 2.1199999 6.23 0 0 255 0 0 0 0
4.7800002 7.3099999 6.1300001 0 0 255 0 0 0 0
0.63 4.0599999 9.5900002 0 0 255 0 0 0 0
4.0500002 3.4100001 8.1599998 0 0 255 0 0 0 0
1 0.22 8.6800003 0 0 255 0 0 0 0
2.9300001 3.9300001 2.5799999 0 0 255 0 0 0 0
2.6600001 8.1700001 7.6199999 0 0 255 0 0 0 0
8.1800003 9.1000004 7.9200001 0 0 255 0 0 0 0
4.1199999 3.1600001 4.73 0 0 255 0 0 0 0
9.5600004 3.0999999 1.48 0 0 255 0 0 0 0
7.4400001 2.0699999 4.1599998 0 0 255 0 0 0 0
0.28999999 4.8000002 8.0500002 0 0 255 0 0 0 0
3.0599999 6.9000001 2.4100001 0 0 255 0 0 0 0
5.9499998 6.52 8.4700003 0 0 255 0 0 0 0
0.75 2.1099999 3.51 0 0 255 0 0 0 0
0.69999999 7.5900002 7.7199998 0 0 255 0 0 0 0
1.0599999 8.1000004 9.1499996 0 0 255 0 0 0 0
0.57999998 5.1599998 8.7600002 0 0 255 0 0 0 0
0.75 2.3800001 2.75 0 0 255 0 0 0 0
8.8199997 4.21 9.1800003 0 0 255 0 0 0 0
2.3299999 1.1900001 1.71 0 0 255 0 0 0 0
8.1599998 9.4899998 3.3399999 0 0 255 0 0 0 0
8 3.1800001 1.87 0 0 255 0 0 0 0
1.3200001 9.0100002 5.0900002 0 0 255 0 0 0 0
9.7200003 8.0299997 4.7800002 0 0 255 0 0 0 0
4.3800001 7.6700001 6.0900002 0 0 255 0 0 0 0
2.51 3.1400001 6.4000001 0 0 255 0 0 0 0
9.8299999 5.0300002 4.3899999 0 0 255 0 0 0 0
3.73 7.6799998 7.4200001 0 0 255 0 0 0 0
3.23 8.0200005 8.7399998 0 0 255 0 0 0 0
5.4499998 6.1500001 8.4799995 0 0 255 0 0 0 0
8.2399998 5.0300002 2.0799999 0 0 255 0 0 0 0
5.4099998 4.54 1.59 0 0 255 0 0 0 0
4.1100001 5.5300002 7.5500002 0 0 255 0 0 0 0
4.9000001 8.54 0.27000001 0 0 255 0 0 0 0
7.29 9.5600004 2.5 0 0 255 0 0 0 0
1.71 5.5900002 2.6600001 0 0 255 0 0 0 0
7.1900001 3.53 4.21 0 0 255 0 0 0 0
8.3400002 8.3400002 2.03 0 0 255 0 0 0 0
3.8399999 9.5699997 3.76 0 0 255 0 0 0 0
3.5699999 0.37 5.8299999 0 0 255 0 0 0 0
3.74 8.6300001 2.6400001 0 0 255 0 0 0 0
8.8699999 0.77999997 2.22 0 0 255 0 0 0 0
6.5999999 5.46 3.77 0 0 255 0 0 0 0
6.4000001 3.6600001 6.6300001 0 0 255 0 0 0 0
6.0900002 2.79 2.74 0 0 255 0 0 0 0
8.5100002 5.3800001 8.8599997 0 0 255 0 0 0 0
4.9699998 7.1199999 9 0 0 255 0 0 0 0
0.2 3.7 8.1499996 0 0 255 0 0 0 0
8.9499998 6.9299998 4.3499999 0 0 255 0 0 0 0
1.4400001 4.3499999 9.7299995 0 0 255 0 0 0 0
3.23 4.4699998 2.22 0 0 255 0 0 0 0
1.11 7.9099998 5.71 0 0 255 0 0 0 0
3.7 0.16 7.0799999 0 0 255 0 0 0 0
5.0500002 9.9099998 8.2700005 0 0 255 0 0 0 0
6.6300001 1.51 1.6 0 0 255 0 0 0 0
9.0600004 2.6300001 5.5500002 0 0 255 0 0 0 0
7.77 6.0300002 5.8099999 0 0 255 0 0 0 0
8.1800003 3.8699999 5.52 0 0 255 0 0 0 0
6.3200002 8.0299997 5.04 0 0 255 0 0 0 0
5.0599999 3.5599999 7.02 0 0 255 0 0 0 0
1.64 3.8099999 3.6600001 0 0 255 0 0 0 0
0.64999998 3.8599999 3.8099999 0 0 255 0 0 0 0
2.5999999 7.6500001 3.8900001 0 0 255 0 0 0 0
9.8500004 6.0700002 5.5300002 0 0 255 0 0 0 0
8.0799999 4.6999998 0.1 0 0 255 0 0 0 0
3.4300001 2.27 1.13 0 0 255 0 0 0 0
9.7600002 9.3100004 1.95 0 0 255 0 0 0 0
3.8199999 7.3800001 0.28 0 0 255 0 0 0 0
6.23 1.87 6.1399999 0 0 255 0 0 0 0
7.29 3.74 9.6300001 0 0 255 0 0 0 0
9.8900003 3.6800001 2.8599999 0 0 255 0 0 0 0
5.1799998 3.3399999 0.41 0 0 255 0 0 0 0
1.24 7.5700002 8.8800001 0 0 255 0 0 0 0
6.1399999 4.9499998 7.6399999 0 0 255 0 0 0 0
5.5900002 9.7700005 9.1899996 0 0 255 0 0 0 0
0.66000003 1.41 4.3000002 0 0 255 0 0 0 0
3.0899999 8.4700003 3.8299999 0 0 255 0 0 0 0
9.1300001 4.7399998 7.0100002 0 0 255 0 0 0 0
6.9899998 6.1900001 8.8199997 0 0 255 0 0 0 0
7.3899999 1.51 0.69 0 0 255 0 0 0 0
2.9300001 9.1499996 9.1899996 0 0 255 0 0 0 0
7.23 5.8800001 7.6900001 0 0 255 0 0 0 0
8.3699999 7.1900001 8 0 0 255 0 0 0 0
0.94999999 2.4100001 0.66000003 0 0 255 0 0 0 0
7.9000001 4.3200002 4.3299999 0 0 255 0 0 0 0
0.039999999 8.4399996 0.58999997 0 0 255 0 0 0 0
7.52 4.21 2.21 0 0 255 0 0 0 0
7.8899999 1.59 8.5299997 0 0 255 0 0 0 0
8.5799999 0.47999999 6.0599999 0 0 255 0 0 0 0
0.47999999 8.4099998 0.81 0 0 255 0 0 0 0
8.9499998 4.0599999 1.05 0 0 255 0 0 0 0
1.1799999 9.5100002 6.21 0 0 255 0 0 0 0
3.4400001 9.3199997 6.54 0 0 255 0 0 0 0
1.03 0.80000001 2.03 0 0 255 0 0 0 0
9.8299999 1.45 7.3800001 0 0 255 0 0 0 0
5.25 0.97000003 3.54 0 0 255 0 0 0 0
9.2700005 5.5900002 1.17 0 0 255 0 0 0 0
7.9299998 4.29 0.51999998 0 0 255 0 0 0 0
2.73 0.039999999 4.3200002 0 0 255 0 0 0 0
7.8299999 2.8399999 1.85 0 0 255 0 0 0 0
9.5699997 4.9899998 2.4200001 0 0 255 0 0 0 0
6.9099998 9.7299995 5.3499999 0 0 255 0 0 0 0
3.54 4.8800001 1.1799999 0 0 255 0 0 0 0
2.25 0.81 4.9499998 0 0 255 0 0 0 0
9.0600004 7.8600001 0.44 0 0 255 0 0 0 0
3.74 5.79 2.9100001 0 0 255 0 0 0 0
2.6600001 4.9000001 1.08 0 0 255 0 0 0 0
4.9899998 6.2800002 9.4499998 0 0 255 0 0 0 0
7.29 4.1799998 9.8000002 0 0 255 0 0 0 0
8.1899996 6.8400002 7.79 0 0 255 0 0 0 0
2.51 1.38 5.9200001 0 0 255 0 0 0 0
5.2800002 5.6100001 9.7200003 0 0 255 0 0 0 0
2.0799999 9.8000002 9.3100004 0 0 255 0 0 0 0
8.8400002 1.22 1.49 0 0 255 0 0 0 0
5.1700001 0.73000002 5.7399998 0 0 255 0 0 0 0
7.8099999 7.8899999 7.1599998 0 0 255 0 0 0 0
0.079999998 5.3800001 0.70999998 0 0 255 0 0 0 0
4.9099998 2.21 3.75 0 0 255 0 0 0 0
6.46 2.3199999 9.8599997 0 0 255 0 0 0 0
0.5 0.43000001 6.5700002 0 0 255 0 0 0 0
7.0799999 7.1999998 6.8299999 0 0 255 0 0 0 0
8.6599998 7.46 0.23999999 0 0 255 0 0 0 0
9.1199999 5.54 1.71 0 0 255 0 0 0 0
7.73 3.9200001 0.88999999 0 0 255 0 0 0 0
2.47 4.21 3.3399999 0 0 255 0 0 0 0
7.7600002 3.3499999 8.6300001 0 0 255 0 0 0 0
7.8000002 5.8800001 7.25 0 0 255 0 0 0 0
6.29 1.11 5.98 0 0 255 0 0 0 0
4.1700001 8.0799999 2.8199999 0 0 255 0 0 0 0
7.54 6.73 9.1700001 0 0 255 0 0 0 0
8.9200001 8.5 7.6199999 0 0 255 0 0 0 0
7.1999998 3.74 6.1599998 0 0 255 0 0 0 0
1.61 4.3099999 2.8399999 0 0 255 0 0 0 0
5.75 8.4300003 8.7700005 0 0 255 0 0 0 0
0.41999999 7.5599999 3.3299999 0 0 255 0 0 0 0
0.079999998 9.75 0.70999998 0 0 255 0 0 0 0
8.0500002 3.29 7.04 0 0 255 0 0 0 0
0.94999999 7.6300001 8.25 0 0 255 0 0 0 0
0.57999998 7.98 6.4899998 0 0 255 0 0 0 0
1.52 6.27 4.5599999 0 0 255 0 0 0 0
9.2399998 6.0100002 7.1500001 0 0 255 0 0 0 0
2.4200001 3.04 2.3800001 0 0 255 0 0 0 0
0.99000001 9.6199999 2.99 0 0 255 0 0 0 0
7.9200001 3.5599999 2.97 0 0 255 0 0 0 0
2.49 5.3400002 2.8099999 0 0 255 0 0 0 0
3.8599999 3.02 3.6500001 0 0 255 0 0 0 0
1.37 4.8699999 9.6300001 0 0 255 0 0 0 0
0.61000001 4.0900002 2.21 0 0 255 0 0 0 0
2.45 4.8400002 7.54 0 0 255 0 0 0 0
0.079999998 10 9.3000002 0 0 255 0 0 0 0
9.6000004 4.0599999 3.4400001 0 0 255 0 0 0 0
5.8099999 2.23 2.04 0 0 255 0 0 0 0
0.059999999 8.1999998 7.5100002 0 0 255 0 0 0 0
4.7199998 2.2 1.55 0 0 255 0 0 0 0
8.3100004 8.9499998 1.78 0 0 255 0 0 0 0
5.9699998 6.4499998 2.8099999 0 0 255 0 0 0 0
6.02 2.98 3.72 0 0 255 0 0 0 0
3.1199999 5.1999998 5.7800002 0 0 255 0 0 0 0
4.8800001 8.0100002 9.4399996 0 0 255 0 0 0 0
4.3099999 6.4899998 0.63 0 0 255 0 0 0 0
0.54000002 7.8800001 6.5599999 0 0 255 0 0 0 0
4.1900001 4.77 6.6900001 0 0 255 0 0 0 0
3.72 0.67000002 7.48 0 0 255 0 0 0 0
3.71 0.44 5.8000002 0 0 255 0 0 0 0
2.3399999 8.1599998 2.9400001 0 0 255 0 0 0 0
8.79 1.97 3.45 0 0 255 0 0 0 0
1.91 1.11 5.1700001 0 0 255 0 0 0 0
5.8899999 2.02 3.8199999 0 0 255 0 0 0 0
5.6700001 6.7600002 7.7800002 0 0 255 0 0 0 0
2.52 8.4899998 9.4700003 0 0 255 0 0 0 0
1.55 4.79 7.9499998 0 0 255 0 0 0 0
5.3600001 7.98 5.9499998 0 0 255 0 0 0 0
9.7299995 4.8200002 6.04 0 0 255 0 0 0 0
9.7299995 6.7800002 9.2399998 0 0 255 0 0 0 0
5 8.7600002 1.88 0 0 255 0 0 0 0
1.29 2.55 5.6799998 0 0 255 0 0 0 0
1.51 6.0599999 1.9400001 0 0 255 0 0 0 0
5.3299999 9.6499996 4.9899998 0 0 255 0 0 0 0
2.0799999 9.2600002 6.71 0 0 255 0 0 0 0
1.29 7.3099999 4.0100002 0 0 255 0 0 0 0
7.4299998 8.4499998 2.5 0 0 255 0 0 0 0
9.8199997 2 0.75999999 0 0 255 0 0 0 0
6.1599998 3.29 1.05 0 0 255 0 0 0 0
9.3699999 0.30000001 4.8000002 0 0 255 0 0 0 0
5.6199999 1.9299999 2.22 0 0 255 0 0 0 0
8.1499996 6.9099998 8.6700001 0 0 255 0 0 0 0
2.0599999 7.3899999 6.3000002 0 0 255 0 0 0 0
0.17 8.5900002 2.8299999 0 0 255 0 0 0 0
3.6600001 0.27000001 0.41 0 0 255 0 0 0 0
3.23 6.8400002 0.23999999 0 0 255 0 0 0 0
5.1700001 8.5 6.4299998 0 0 255 0 0 0 0
9.9700003 2.0699999 7.52 0 0 255 0 0 0 0
0.63 9.8100004 8.5900002 0 0 255 0 0 0 0
6.71 10 5.0799999 0 0 255 0 0 0 0
1.9299999 9.29 9.7399998 0 0 255 0 0 0 0
2.0899999 9.8800001 1.87 0 0 255 0 0 0 0
4 2.9200001 1.9400001 0 0 255 0 0 0 0
6.8600001 9.3000002 7.5799999 0 0 255 0 0 0 0
3.0599999 8.5600004 9.6800003 0 0 255 0 0 0 0
6.2199998 2.3800001 0.5 0 0 255 0 0 0 0
3.28 2.3 9.1400003 0 0 255 0 0 0 0
0.0099999998 4.77 3.3399999 0 0 255 0 0 0 0
2.47 1.0599999 2.9400001 0 0 255 0 0 0 0
2.55 9.8599997 3.71 0 0 255 0 0 0 0
9.79 8.4200001 9.7399998 0 0 255 0 0 0 0
9.1199999 0.88 0.79000002 0 0 255 0 0 0 0
5.4400001 6.98 3.6800001 0 0 255 0 0 0 0
0.69999999 2.6500001 0.52999997 0 0 255 0 0 0 0
5.71 3.3499999 6.9099998 0 0 255 0 0 0 0
8.4300003 5.2199998 6.6300001 0 0 255 0 0 0 0
4.46 7.5300002 6.9299998 0 0 255 0 0 0 0
2.1199999 5.0999999 1.86 0 0 255 0 0 0 0
7.6599998 7.3299999 1.05 0 0 255 0 0 0 0
6.8299999 1.13 3.05 0 0 255 0 0 0 0
9.0900002 1.5599999 0.0099999998 0 0 255 0 0 0 0
8.1000004 3.49 4.8099999 0 0 255 0 0 0 0
5.73 2.73 9.8000002 0 0 255 0 0 0 0
3.25 7.46 3.23 0 0 255 0 0 0 0
6 8.5799999 7.8499999 0 0 255 0 0 0 0
4.9099998 3.0799999 7.6500001 0 0 255 0 0 0 0
2.5599999 5.5300002 9.8699999 0 0 255 0 0 0 0
0.050000001 1.42 5.46 0 0 255 0 0 0 0
1.73 5.7199998 2.5899999 0 0 255 0 0 0 0
0.56 0.38 2.03 0 0 255 0 0 0 0
0 9.2399998 7.1999998 0 0 255 0 0 0 0
4.0100002 9.6700001 7.29 0 0 255 0 0 0 0
0.43000001 8.96 8.3999996 0 0 255 0 0 0 0
7.4400001 8.1599998 4.5799999 0 0 255 0 0 0 0
9.6700001 9.2200003 4.8000002 0 0 255 0 0 0 0
7.2600002 6.6399999 6.0100002 0 0 255 0 0 0 0
6.7199998 3.22 3.1800001 0 0 255 0 0 0 0
6.3400002 8.4799995 9.1899996 0 0 255 0 0 0 0
6.1199999 9.8100004 2.29 0 0 255 0 0 0 0
0.46000001 3.3199999 9.04 0 0 255 0 0 0 0
7.5999999 1.23 9.1999998 0 0 255 0 0 0 0
6.8400002 1.61 1.16 0 0 255 0 0 0 0
0.63999999 7.9000001 7.2600002 0 0 255 0 0 0 0
6.0700002 5.5799999 1.48 0 0 255 0 0 0 0
4.3200002 5.4699998 2.76 0 0 255 0 0 0 0
3.4200001 4.1599998 7.71 0 0 255 0 0 0 0
2.8699999 9.8199997 6.6999998 0 0 255 0 0 0 0
5.8200002 7.5700002 0.67000002 0 0 255 0 0 0 0
2.4400001 0.039999999 0.41999999 0 0 255 0 0 0 0
8.9499998 6.8499999 6.25 0 0 255 0 0 0 0
6.0500002 7.4899998 2.3800001 0 0 255 0 0 0 0
5.0100002 1.74 8.3000002 0 0 255 0 0 0 0
7.04 1.35 8.8699999 0 0 255 0 0 0 0
1.49 2.9200001 6.8800001 0 0 255 0 0 0 0
6.8499999 3.98 5.8400002 0 0 255 0 0 0 0
1.8 2.25 2.52 0 0 255 0 0 0 0
7.75 4.2600002 1.9 0 0 255 0 0 0 0
5.73 6.6199999 7.77 0 0 255 0 0 0 0
8.0500002 7.7399998 1.59 0 0 255 0 0 0 0
7.27 3.5799999 1.54 0 0 255 0 0 0 0
0.16 6.3200002 5.5799999 0 0 255 0 0 0 0
8.0299997 2.1500001 1.74 0 0 255 0 0 0 0
4.02 3.29 5.3899999 0 0 255 0 0 0 0
7.8000002 6.8499999 6.5799999 0 0 255 0 0 0 0
0.80000001 1 7.1399999 0 0 255 0 0 0 0
3.1099999 2.6700001 4.6599998 0 0 255 0 0 0 0
2.02 5.73 9.5900002 0 0 255 0 0 0 0
8.4099998 9.7200003 0.23 0 0 255 0 0 0 0
4.7199998 8.7799997 6.48 0 0 255 0 0 0 0
6.6999998 2.8599999 1.02 0 0 255 0 0 0 0
1.3 5.5999999 2.5699999 0 0 255 0 0 0 0
0.40000001 7.3400002 9.29 0 0 255 0 0 0 0
2.6800001 6.98 7.2800002 0 0 255 0 0 0 0
4.9299998 6.8699999 3.3399999 0 0 255 0 0 0 0
3.8 6 8.6599998 0 0 255 0 0 0 0
1.91 0.47999999 9.7399998 0 0 255 0 0 0 0
6.6999998 1.04 0.64999998 0 0 255 0 0 0 0
8.0799999 2.9100001 2.2 0 0 255 0 0 0 0
0.02 9.1400003 3.02 0 0 255 0 0 0 0
0.28999999 0.23999999 4.2399998 0 0 255 0 0 0 0
5.2600002 1.73 2.3 0 0 255 0 0 0 0
0 0.56999999 8.7700005 0 0 255 0 0 0 0
5.71 7.0500002 4.02 0 0 255 0 0 0 0
7.3499999 8.2200003 5.3299999 0 0 255 0 0 0 0
4.4400001 8.1199999 0.090000004 0 0 255 0 0 0 0
0.40000001 5.2600002 7.9699998 0 0 255 0 0 0 0
6.1399999 2.3099999 5.9699998 0 0 255 0 0 0 0
0.40000001 8.6899996 9.4499998 0 0 255 0 0 0 0
4.3800001 0.77999997 4.1599998 0 0 255 0 0 0 0
8.4899998 2.4000001 9.54 0 0 255 0 0 0 0
3.05 6.5799999 3.53 0 0 255 0 0 0 0
1.8 7.9400001 5.8400002 0 0 255 0 0 0 0
7.6700001 9.9300003 0.19 0 0 255 0 0 0 0
5.6300001 0.36000001 6.4299998 0 0 255 0 0 0 0
1.33 7.5799999 5.5700002 0 0 255 0 0 0 0
4 0.30000001 1.88 0 0 255 0 0 0 0
4.0500002 8.6999998 5.1300001 0 0 255 0 0 0 0
5.4699998 7.3699999 1.96 0 0 255 0 0 0 0
4.6199999 5.3600001 5.3899999 0 0 255 0 0 0 0
4.5900002 6.29 1.08 0 0 255 0 0 0 0
9.3699999 7.1999998 9.0100002 0 0 255 0 0 0 0
3.8499999 0.97000003 6.7600002 0 0 255 0 0 0 0
4.5300002 4.5300002 7.9400001 0 0 255 0 0 0 0
6.5 0.44999999 7.1700001 0 0 255 0 0 0 0
6.1199999 4.02 8.0200005 0 0 255 0 0 0 0
1.85 1.08 1.15 0 0 255 0 0 0 0
3.5899999 8.1999998 5.0100002 0 0 255 0 0 0 0
4.4299998 2.5999999 1.23 0 0 255 0 0 0 0
6.04 6.1500001 0.14 0 0 255 0 0 0 0
0.55000001 7 3.8299999 0 0 255 0 0 0 0
8.0900002 3.55 4.3099999 0 0 255 0 0 0 0
6.8299999 2.54 5.3699999 0 0 255 0 0 0 0
0.98000002 8.8900003 0.54000002 0 0 255 0 0 0 0
7.1199999 3.49 2.2 0 0 255 0 0 0 0
9.9899998 9.6000004 3.97 0 0 255 0 0 0 0
0.0099999998 2.28 6.96 0 0 255 0 0 0 0
1.4400001 5.0300002 2.71 0 0 255 0 0 0 0
9.6999998 7.3699999 7.8299999 0 0 255 0 0 0 0
0.51999998 3.4200001 2.5599999 0 0 255 0 0 0 0
0.49000001 4.5900002 7.25 0 0 255 0 0 0 0
7.71 5.8600001 7.9299998 0 0 255 0 0 0 0
4.6700001 2.8499999 3.6900001 0 0 255 0 0 0 0
8.0799999 5.98 1.99 0 0 255 0 0 0 0
1.6799999 8.5500002 1.76 0 0 255 0 0 0 0
1.9 6.5 7.21 0 0 255 0 0 0 0
3.9200001 3.53 5.96 0 0 255 0 0 0 0
9.8299999 6.21 4.8800001 0 0 255 0 0 0 0
9.2799997 2.5 7.73 0 0 255 0 0 0 0
8.5699997 9.3199997 4.4299998 0 0 255 0 0 0 0
6.4899998 0.059999999 4.8099999 0 0 255 0 0 0 0
3.25 1.75 9.7200003 0 0 255 0 0 0 0
9.1999998 1.47 6.6199999 0 0 255 0 0 0 0
3.98 6.0599999 9.3800001 0 0 255 0 0 0 0
1.5599999 8.5100002 9.8400002 0 0 255 0 0 0 0
0.73000002 0.50999999 3.1400001 0 0 255 0 0 0 0
2.8900001 2.6199999 1.39 0 0 255 0 0 0 0
3.0899999 0 2.47 0 0 255 0 0 0 0
5.5799999 8.3400002 6.6399999 0 0 255 0 0 0 0
1.97 7.4499998 7.8699999 0 0 255 0 0 0 0
7.2399998 8.3400002 3.03 0 0 255 0 0 0 0
9.5100002 3.5599999 5.2800002 0 0 255 0 0 0 0
0.75 7.4200001 2.53 0 0 255 0 0 0 0
9.25 7.0100002 3.73 0 0 255 0 0 0 0
5.1999998 2.1600001 2.47 0 0 255 0 0 0 0
0.34999999 5.0700002 8.6300001 0 0 255 0 0 0 0
2.4300001 9.3800001 0.47 0 0 255 0 0 0 0
2.46 2.9200001 6.5900002 0 0 255 0 0 0 0
5.6399999 4.5300002 5.9200001 0 0 255 0 0 0 0
4.5500002 8.8100004 7.5799999 0 0 255 0 0 0 0
6.7800002 1.0700001 1 0 0 255 0 0 0 0
2.8900001 6.23 8.0200005 0 0 255 0 0 0 0
6.2600002 4.1199999 4.8000002 0 0 255 0 0 0 0
1.55 1.8 9.3599997 0 0 255 0 0 0 0
6.1300001 6.3499999 8.8900003 0 0 255 0 0 0 0
3.8299999 2.6300001 1.67 0 0 255 0 0 0 0
4.0700002 6.8499999 5.3000002 0 0 255 0 0 0 0
6.3000002 1.66 9.2399998 0 0 255 0 0 0 0
0.1 7.7800002 2.99 0 0 255 0 0 0 0
3.9300001 9.7600002 2.51 0 0 255 0 0 0 0
4.4899998 9.0299997 6.3600001 0 0 255 0 0 0 0
2.1099999 4.7399998 9.3900003 0 0 255 0 0 0 0
8.5200005 5.1700001 5.3699999 0 0 255 0 0 0 0
6.6300001 2.76 1.08 0 0 255 0 0 0 0
1.4400001 7.1799998 1 0 0 255 0 0 0 0
0.27000001 0.64999998 0.11 0 0 255 0 0 0 0
5 1.35 5.9299998 0 0 255 0 0 0 0
3.4300001 5.3899999 7.6399999 0 0 255 0 0 0 0
3.24 1.64 1 0 0 255 0 0 0 0
8.79 1.91 9.2600002 0 0 255 0 0 0 0
7.0999999 1.9 8.29 0 0 255 0 0 0 0
1.09 1.53 2.4400001 0 0 255 0 0 0 0
7.77 3.53 4.1399999 0 0 255 0 0 0 0
4.6999998 4.3600001 1.95 0 0 255 0 0 0 0
7.8800001 0.68000001 3.0799999 0 0 255 0 0 0 0
7.5100002 1.37 1.8200001 0 0 255 0 0 0 0
0.61000001 2.54 2.2 0 0 255 0 0 0 0
3.52 0.5 2.3499999 0 0 255 0 0 0 0
8.46 5.8800001 6.5799999 0 0 255 0 0 0 0
6.9299998 2.8900001 9.2799997 0 0 255 0 0 0 0
2.7 3.45 1.01 0 0 255 0 0 0 0
8.0600004 1.23 8.8999996 0 0 255 0 0 0 0
5.1300001 6.3699999 4.2600002 0 0 255 0 0 0 0
8.0100002 4.02 6.23 0 0 255 0 0 0 0
4.0700002 9.2600002 9.29 0 0 255 0 0 0 0
1.86 0.23 4.8400002 0 0 255 0 0 0 0
0.33000001 8.4300003 0.22 0 0 255 0 0 0 0
6.5799999 5.4200001 3.02 0 0 255 0 0 0 0
9.3100004 3.6500001 1.14 0 0 255 0 0 0 0
0.56999999 1.9299999 2.8 0 0 255 0 0 0 0
5.4000001 2.0699999 4.4000001 0 0 255 0 0 0 0
1.96 4.6199999 5.04 0 0 255 0 0 0 0
5.9499998 3.8 3.5899999 0 0 255 0 0 0 0
4.5799999 3.54 5.1599998 0 0 255 0 0 0 0
6.8499999 6.29 9.5500002 0 0 255 0 0 0 0
3.6600001 1.67 5.8400002 0 0 255 0 0 0 0
7.0100002 5.3099999 8.2700005 0 0 255 0 0 0 0
0.41999999 7.1999998 0.30000001 0 0 255 0 0 0 0
3.9200001 8.3000002 8.1599998 0 0 255 0 0 0 0
3.28 5.3800001 2.96 0 0 255 0 0 0 0
9.2799997 1.6 0.69 0 0 255 0 0 0 0
5.1500001 0.73000002 9.8999996 0 0 255 0 0 0 0
3.02 8.9700003 7.8000002 0 0 255 0 0 0 0
0.72000003 8.3699999 7.0700002 0 0 255 0 0 0 0
9.8800001 6.6799998 5.52 0 0 255 0 0 0 0
2.9000001 9.9700003 4.6700001 0 0 255 0 0 0 0
5.7600002 8.2600002 7.71 0 0 255 0 0 0 0
0.81999999 2.9100001 0.58999997 0 0 255 0 0 0 0
2.52 3.4300001 6.2800002 0 0 255 0 0 0 0
2.6900001 2.0699999 3.01 0 0 255 0 0 0 0
1.26 1.9400001 1.4299999 0 0 255 0 0 0 0
7.4299998 4.9099998 0.52999997 0 0 255 0 0 0 0
8.79 1.71 0.94 0 0 255 0 0 0 0
2.5799999 7.6700001 5.3400002 0 0 255 0 0 0 0
8.1499996 8.1899996 9.7600002 0 0 255 0 0 0 0
6.5700002 5.3600001 6.3499999 0 0 255 0 0 0 0
7.7800002 5.6399999 5.54 0 0 255 0 0 0 0
1.92 6.8099999 1 0 0 255 0 0 0 0
5.6900001 3.2 1.88 0 0 255 0 0 0 0
7.5100002 5.9699998 7.54 0 0 255 0 0 0 0
4.1900001 9.25 8.6000004 0 0 255 0 0 0 0
4.9200001 8.8999996 5.6900001 0 0 255 0 0 0 0
2.98 2.98 5.1300001 0 0 255 0 0 0 0
1.47 3.6600001 3.1400001 0 0 255 0 0 0 0
9.4700003 1.84 0.28 0 0 255 0 0 0 0
3.1700001 3.5599999 6.5599999 0 0 255 0 0 0 0
0.38 2.96 3.8499999 0 0 255 0 0 0 0
6.1500001 8.6400003 9.3000002 0 0 255 0 0 0 0
7.4299998 7.1900001 3.8299999 0 0 255 0 0 0 0
5.5700002 2.24 2.9200001 0 0 255 0 0 0 0
0.029999999 3.05 7.1300001 0 0 255 0 0 0 0
6.9400001 9.9300003 5.3600001 0 0 255 0 0 0 0
9.6199999 9.7200003 6.0799999 0 0 255 0 0 0 0
8.8599997 9.4099998 8.7600002 0 0 255 0 0 0 0
0.30000001 3.26 8.6199999 0 0 255 0 0 0 0
8.7799997 5.3800001 3.74 0 0 255 0 0 0 0
0.63 0.38 4.8099999 0 0 255 0 0 0 0
8.5100002 7.4000001 2.4300001 0 0 255 0 0 0 0
6.9200001 9.1499996 3.48 0 0 255 0 0 0 0
1.02 8.4300003 7.3499999 0 0 255 0 0 0 0
5.77 2.4300001 5.3099999 0 0 255 0 0 0 0
2.1600001 3.3199999 9.5200005 0 0 255 0 0 0 0
9.3299999 5.71 0.34 0 0 255 0 0 0 0
0.87 4.48 1.9 0 0 255 0 0 0 0
7.3200002 4.0300002 5.7800002 0 0 255 0 0 0 0
9.21 1.14 6.8499999 0 0 255 0 0 0 0
7.9400001 4.3099999 6.5100002 0 0 255 0 0 0 0
6.4299998 3.2 1.71 0 0 255 0 0 0 0
6.0599999 7.3299999 6.6999998 0 0 255 0 0 0 0
4.4400001 4.4200001 2.0599999 0 0 255 0 0 0 0
2.99 6.0799999 5.9699998 0 0 255 0 0 0 0
3.3299999 5.4499998 2.45 0 0 255 0 0 0 0
6.6500001 3.8800001 3.6099999 0 0 255 0 0 0 0
7.9299998 9.7700005 4.8800001 0 0 255 0 0 0 0
0.63 9.9499998 7.02 0 0 255 0 0 0 0
5.9499998 0.88999999 7.5300002 0 0 255 0 0 0 0
0.98000002 1.24 0.87 0 0 255 0 0 0 0
4.5300002 9.3400002 6.5599999 0 0 255 0 0 0 0
7.77 9.2700005 1.8 0 0 255 0 0 0 0
0.81 1.87 9.8599997 0 0 255 0 0 0 0
3.3 3.5599999 7.7199998 0 0 255 0 0 0 0
7.3200002 7.9699998 4.8800001 0 0 255 0 0 0 0
3.8 4.8600001 8.2600002 0 0 255 0 0 0 0
7.5799999 7.54 3.1300001 0 0 255 0 0 0 0
2.98 1.5599999 2.52 0 0 255 0 0 0 0
6.0100002 5.5 2.53 0 0 255 0 0 0 0
4.1700001 9.8000002 0.02 0 0 255 0 0 0 0
8.1099997 0.1 7.5799999 0 0 255 0 0 0 0
6.21 1.99 6.3099999 0 0 255 0 0 0 0
6.9299998 6.6900001 0.2 0 0 255 0 0 0 0
3.8 0.56999999 4.9200001 0 0 255 0 0 0 0
1.1900001 6.4699998 3.53 0 0 255 0 0 0 0
2.6800001 0.77999997 6.98 0 0 255 0 0 0 0
3.5699999 5.04 3.6199999 0 0 255 0 0 0 0
4.6900001 1.85 1.83 0 0 255 0 0 0 0
1.77 1.95 8.6700001 0 0 255 0 0 0 0
8.1499996 5.1300001 2.8299999 0 0 255 0 0 0 0
2.7 5.0700002 9.9200001 0 0 255 0 0 0 0
1.21 0.14 9 0 0 255 0 0 0 0
1.4 8.9899998 2.97 0 0 255 0 0 0 0
7.6999998 4.1100001 8.9099998 0 0 255 0 0 0 0
1.53 7.3400002 7.73 0 0 255 0 0 0 0
3.96 9.6099997 6.3000002 0 0 255 0 0 0 0
3.0599999 7.8099999 3.3800001 0 0 255 0 0 0 0
3.1400001 4.5999999 4.1199999 0 0 255 0 0 0 0
1.86 2.6800001 3.9200001 0 0 255 0 0 0 0
7.5 9.9899998 4.6399999 0 0 255 0 0 0 0
6.02 6.1700001 8.3199997 0 0 255 0 0 0 0
6.5700002 3.78 2.1800001 0 0 255 0 0 0 0
7.3800001 10 5.73 0 0 255 0 0 0 0
6.5 7.8499999 4.8400002 0 0 255 0 0 0 0
2.5799999 9.1499996 1.6799999 0 0 255 0 0 0 0
8.4899998 2.55 6.6100001 0 0 255 0 0 0 0
8.3000002 6.9200001 9.6199999 0 0 255 0 0 0 0
5.54 7.9000001 9.7399998 0 0 255 0 0 0 0
4.9400001 9.96 4.0100002 0 0 255 0 0 0 0
5.5799999 3.79 4.25 0 0 255 0 0 0 0
2.71 0.56 3.4100001 0 0 255 0 0 0 0
2.8499999 2.74 9.8199997 0 0 255 0 0 0 0
1.8 0.23 2.0699999 0 0 255 0 0 0 0
8.6300001 3.54 3.6199999 0 0 255 0 0 0 0
9.3500004 6.1700001 2.1600001 0 0 255 0 0 0 0
0.2 4.6599998 6.6999998 0 0 255 0 0 0 0
6.3000002 6.1599998 0.57999998 0 0 255 0 0 0 0
2.48 2.8499999 7.8400002 0 0 255 0 0 0 0
8 2.05 4.6700001 0 0 255 0 0 0 0
9.75 8.96 0.82999998 0 0 255 0 0 0 0
2.1800001 5.1199999 9.1599998 0 0 255 0 0 0 0
7.02 1.1900001 8.1599998 0 0 255 0 0 0 0
6.23 9.04 7.5900002 0 0 255 0 0 0 0
4 6.5799999 1.2 0 0 255 0 0 0 0
7.1599998 0.0099999998 0.20999999 0 0 255 0 0 0 0
6.3099999 1.51 8.6199999 0 0 255 0 0 0 0
2.6900001 4.4299998 0.02 0 0 255 0 0 0 0
5.9699998 9.6199999 2.5799999 0 0 255 0 0 0 0
3.8499999 1.79 4.3499999 0 0 255 0 0 0 0
6.5599999 8.4700003 2.0699999 0 0 255 0 0 0 0
9.4399996 8.1800003 0.23 0 0 255 0 0 0 0
4.6900001 3 0.090000004 0 0 255 0 0 0 0
8.3100004 8.4399996 0.33000001 0 0 255 0 0 0 0
1.8200001 4.3099999 4.6300001 0 0 255 0 0 0 0
5.1399999 6.0300002 4.8400002 0 0 255 0 0 0 0
9.1599998 3.24 6.1399999 0 0 255 0 0 0 0
5.9899998 5.6700001 7.3200002 0 0 255 0 0 0 0
3.22 1.6900001 9.1499996 0 0 255 0 0 0 0
6.9000001 9.8900003 2.4300001 0 0 255 0 0 0 0
6.9699998 4.5100002 6.6399999 0 0 255 0 0 0 0
7.9699998 7.9899998 5.7600002 0 0 255 0 0 0 0
8.4499998 6.1199999 3.21 0 0 255 0 0 0 0
1.83 0.19 9.1199999 0 0 255 0 0 0 0
4.9200001 2.8599999 2.23 0 0 255 0 0 0 0
3.1800001 5.6100001 9.1099997 0 0 255 0 0 0 0
6.3400002 6.5100002 4.9499998 0 0 255 0 0 0 0
5.3099999 1.8200001 9.0100002 0 0 255 0 0 0 0
1.91 9.0900002 2.99 0 0 255 0 0 0 0
5.1799998 0.97000003 4.0900002 0 0 255 0 0 0 0
2.4200001 9.3199997 6.8600001 0 0 255 0 0 0 0
8.5699997 8.4899998 7.5599999 0 0 255 0 0 0 0
9.8599997 9.54 0.82999998 0 0 255 0 0 0 0
2.3699999 6.6399999 0.11 0 0 255 0 0 0 0
6.0900002 6.4099998 5.0500002 0 0 255 0 0 0 0
0.73000002 5.0599999 6.8200002 0 0 255 0 0 0 0
4.27 6.8299999 4.5700002 0 0 255 0 0 0 0
7.9699998 2.6800001 0.89999998 0 0 255 0 0 0 0
2.99 8.7600002 3.21 0 0 255 0 0 0 0
9.4899998 8.5799999 4.4400001 0 0 255 0 0 0 0
6.7199998 3.8199999 3.5999999 0 0 255 0 0 0 0
7.8299999 8.3500004 5.1100001 0 0 255 0 0 0 0
8.2700005 4.0100002 3.99 0 0 255 0 0 0 0
4.4000001 3.02 9.8900003 0 0 255 0 0 0 0
5.2800002 9.1300001 7.5999999 0 0 255 0 0 0 0
1.25 7.8099999 7.8499999 0 0 255 0 0 0 0
2.45 3.48 6.3200002 0 0 255 0 0 0 0
5.9499998 5.21 4.9200001 0 0 255 0 0 0 0
1.26 1.21 2.0899999 0 0 255 0 0 0 0
6.4000001 1.49 0.34999999 0 0 255 0 0 0 0
8.9499998 5.8699999 5.3299999 0 0 255 0 0 0 0
7.25 0.67000002 1.92 0 0 255 0 0 0 0
1.75 6.6900001 6.8200002 0 0 255 0 0 0 0
4.21 8.3100004 7.5700002 0 0 255 0 0 0 0
0.059999999 9.3299999 9.0100002 0 0 255 0 0 0 0
0.97000003 9.8800001 4.3499999 0 0 255 0 0 0 0
2.48 2.1700001 2.6500001 0 0 255 0 0 0 0
8.4399996 0.91000003 1.61 0 0 255 0 0 0 0
3.6600001 2.3599999 2.54 0 0 255 0 0 0 0
2.78 0.58999997 5.3800001 0 0 255 0 0 0 0
6.6300001 1.14 8.1199999 0 0 255 0 0 0 0
0.58999997 2.3499999 2.27 0 0 255 0 0 0 0
1.98 6.0300002 6.5799999 0 0 255 0 0 0 0
3.1400001 5.1300001 9.4399996 0 0 255 0 0 0 0
6.04 5.2800002 6.4099998 0 0 255 0 0 0 0
4.8600001 9.2700005 9.3400002 0 0 255 0 0 0 0
3.3800001 3.74 3.47 0 0 255 0 0 0 0
8.8199997 3.4300001 8.4799995 0 0 255 0 0 0 0
8.75 9.6099997 3.3399999 0 0 255 0 0 0 0
7.3099999 1.89 1.91 0 0 255 0 0 0 0
1 5.52 0.43000001 0 0 255 0 0 0 0
8.1899996 4.6399999 0.81 0 0 255 0 0 0 0
9.5500002 3.8399999 1.3200001 0 0 255 0 0 0 0
2.5999999 8.54 3.8199999 0 0 255 0 0 0 0
8.1800003 5.0599999 5.73 0 0 255 0 0 0 0
1.5700001 1.67 6.0799999 0 0 255 0 0 0 0
3.7 6.0700002 8.8900003 0 0 255 0 0 0 0
1.92 7.5700002 5.1100001 0 0 255 0 0 0 0
1.64 8.2299995 8.9300003 0 0 255 0 0 0 0
4.73 9.29 7.23 0 0 255 0 0 0 0
6.6599998 1.4400001 5.5300002 0 0 255 0 0 0 0
4.1100001 9.4399996 2.76 0 0 255 0 0 0 0
0.86000001 9.4099998 2.4300001 0 0 255 0 0 0 0
9.8000002 6.0700002 1.2 0 0 255 0 0 0 0
5.52 7.2399998 5.5799999 0 0 255 0 0 0 0
7.7800002 1.38 6.6399999 0 0 255 0 0 0 0
6.4400001 7.27 0.13 0 0 255 0 0 0 0
9.8000002 3.8099999 9.9700003 0 0 255 0 0 0 0
0.1 9.2299995 7.6100001 0 0 255 0 0 0 0
3.99 6.2199998 5.6100001 0 0 255 0 0 0 0
4.0100002 6.7199998 0.56 0 0 255 0 0 0 0
0.75 7.1100001 2.4400001 0 0 255 0 0 0 0
3.45 1.59 6.4899998 0 0 255 0 0 0 0
9.21 3.4100001 4.8499999 0 0 255 0 0 0 0
0.11 0.44999999 7.23 0 0 255 0 0 0 0
9 7.3800001 2.99 0 0 255 0 0 0 0
4.9400001 3.8499999 1.27 0 0 255 0 0 0 0
7.73 7.9200001 0.34 0 0 255 0 0 0 0
6.02 3.55 0.039999999 0 0 255 0 0 0 0
8.2200003 0.07 9.96 0 0 255 0 0 0 0
4.0100002 6.5100002 1.26 0 0 255 0 0 0 0
5.21 1.03 2.1700001 0 0 255 0 0 0 0
3.74 7.8099999 1 0 0 255 0 0 0 0
4.48 6.7600002 9.7799997 0 0 255 0 0 0 0
0.76999998 7.8299999 1.55 0 0 255 0 0 0 0
3.4100001 3.53 7.0300002 0 0 255 0 0 0 0
7.9200001 9.5900002 1.88 0 0 255 0 0 0 0
6.1799998 1.5700001 0.60000002 0 0 255 0 0 0 0
4.2800002 1.78 3.1400001 0 0 255 0 0 0 0
6.5799999 0.14 0.51999998 0 0 255 0 0 0 0
4.77 5.96 3.8800001 0 0 255 0 0 0 0
3.75 1.99 3.22 0 0 255 0 0 0 0
4.8000002 0.16 3.05 0 0 255 0 0 0 0
9.6599998 1.85 9.6300001 0 0 255 0 0 0 0
7.4000001 1.3200001 4.3800001 0 0 255 0 0 0 0
0.16 1.12 1.99 0 0 255 0 0 0 0
7.9000001 3.9100001 7.7800002 0 0 255 0 0 0 0
4.6300001 1.49 8.96 0 0 255 0 0 0 0
5.6900001 2.8 2.1900001 0 0 255 0 0 0 0
5.3099999 6.0999999 3.77 0 0 255 0 0 0 0
3.24 9.1300001 4.79 0 0 255 0 0 0 0
1.2 5.8800001 5.52 0 0 255 0 0 0 0
3.99 2.54 7.23 0 0 255 0 0 0 0
6.0100002 1.62 2.6500001 0 0 255 0 0 0 0
1.37 0.86000001 2.0599999 0 0 255 0 0 0 0
6.8800001 5.8200002 6.8400002 0 0 255 0 0 0 0
6.5300002 7.8800001 4.6599998 0 0 255 0 0 0 0
3.4000001 7.2800002 8.5 0 0 255 0 0 0 0
0.88999999 2.7 7.0300002 0 0 255 0 0 0 0
6.5999999 7.6700001 2.4000001 0 0 255 0 0 0 0
9.6099997 6.1900001 5.9899998 0 0 255 0 0 0 0
5.6500001 3.8900001 5.23 0 0 255 0 0 0 0
0.69 4.0700002 2.22 0 0 255 0 0 0 0
5.6100001 9.96 5.3400002 0 0 255 0 0 0 0
4.6900001 2.0599999 1.27 0 0 255 0 0 0 0
6.1399999 8.4099998 2.22 0 0 255 0 0 0 0
9.71 7.8400002 3.8699999 0 0 255 0 0 0 0
3.04 4.04 2.3 0 0 255 0 0 0 0
7.0100002 2.9000001 9.5600004 0 0 255 0 0 0 0
9.8000002 5.8000002 1.84 0 0 255 0 0 0 0
7.4499998 9.7200003 9.6800003 0 0 255 0 0 0 0
0.68000001 9.0600004 9.8400002 0 0 255 0 0 0 0
2.5999999 5.1100001 1.47 0 0 255 0 0 0 0
0.0099999998 1.0700001 4.6300001 0 0 255 0 0 0 0
5.4899998 2.8099999 9.8100004 0 0 255 0 0 0 0
3.8 1.2 4.4000001 0 0 255 0 0 0 0
8.7200003 7.4400001 9.1199999 0 0 255 0 0 0 0
5.5900002 5.9699998 0.50999999 0 0 255 0 0 0 0
0.5 4.6599998 6.3000002 0 0 255 0 0 0 0
9.3199997 8.75 0.52999997 0 0 255 0 0 0 0
1.4 1.28 9.6499996 0 0 255 0 0 0 0
8.6700001 6.9299998 9.1199999 0 0 255 0 0 0 0
0.33000001 3.5599999 3.02 0 0 255 0 0 0 0
9.6099997 2.25 6.79 0 0 255 0 0 0 0
9.3100004 7.5100002 7.9899998 0 0 255 0 0 0 0
6.9699998 2.6800001 7.6300001 0 0 255 0 0 0 0
5.46 7.5300002 1.5700001 0 0 255 0 0 0 0
0.73000002 2.3599999 7.3699999 0 0 255 0 0 0 0
2.49 4.5999999 0.38 0 0 255 0 0 0 0
7.77 0.91000003 4.3899999 0 0 255 0 0 0 0
9.1599998 2.5899999 9.6800003 0 0 255 0 0 0 0
7.3699999 5.75 5.8299999 0 0 255 0 0 0 0
5.6199999 3.49 6.5599999 0 0 255 0 0 0 0
8.29 9.4499998 4.8299999 0 0 255 0 0 0 0
8.7200003 4.3400002 4.9099998 0 0 255 0 0 0 0
9.0100002 9.6300001 9.8100004 0 0 255 0 0 0 0
6.9099998 5.79 0.56999999 0 0 255 0 0 0 0
8.2799997 9.71 1.3 0 0 255 0 0 0 0
3.95 7.2199998 8.9899998 0 0 255 0 0 0 0
9.8199997 0.89999998 7.6900001 0 0 255 0 0 0 0
6.75 9.7700005 9.9099998 0 0 255 0 0 0 0
1.8099999 5.6999998 9.4099998 0 0 255 0 0 0 0
6.1399999 8.29 7.3400002 0 0 255 0 0 0 0
8.3199997 9.0200005 0.87 0 0 255 0 0 0 0
2.8 7.23 4.4099998 0 0 255 0 0 0 0
7.29 8.8800001 6.02 0 0 255 0 0 0 0
1.5 3.4300001 6.7600002 0 0 255 0 0 0 0
0.16 7.4299998 1.6 0 0 255 0 0 0 0
0.81999999 6.21 4.48 0 0 255 0 0 0 0
1.12 4.27 6.2800002 0 0 255 0 0 0 0
4.23 7.71 8.3100004 0 0 255 0 0 0 0
0.31 2.3599999 9.4700003 0 0 255 0 0 0 0
1.37 9.6899996 1.99 0 0 255 0 0 0 0
1.03 9.04 2.23 0 0 255 0 0 0 0
2.8299999 5.4499998 2.28 0 0 255 0 0 0 0
1.02 7.2800002 7.98 0 0 255 0 0 0 0
1.52 6.0700002 7.0100002 0 0 255 0 0 0 0
7.23 6.5100002 2.9300001 0 0 255 0 0 0 0
3.3199999 5.0999999 3.9100001 0 0 255 0 0 0 0
7.0999999 4.3499999 7.6599998 0 0 255 0 0 0 0
0 2.6900001 6.25 0 0 255 0 0 0 0
3.53 4.27 6.1100001 0 0 255 0 0 0 0
8 3.52 8.4099998 0 0 255 0 0 0 0
8.7799997 4.79 9.3199997 0 0 255 0 0 0 0
7.25 7.3299999 3.6700001 0 0 255 0 0 0 0
4.3499999 8.96 7.8699999 0 0 255 0 0 0 0
7.3400002 1.6799999 2.8499999 0 0 255 0 0 0 0
7.1300001 9.5600004 0.68000001 0 0 255 0 0 0 0
6.1900001 4.8699999 6.5500002 0 0 255 0 0 0 0
2.8 0.11 3.6700001 0 0 255 0 0 0 0
8.7799997 3.78 8.8000002 0 0 255 0 0 0 0
6.98 5.0599999 7.54 0 0 255 0 0 0 0
6.9200001 9.6300001 8.0699997 0 0 255 0 0 0 0
0.57999998 7.6999998 4.75 0 0 255 0 0 0 0
2.04 8.7600002 5.0799999 0 0 255 0 0 0 0
0.1 0.56 8.8199997 0 0 255 0 0 0 0
5.8099999 0.17 6.3200002 0 0 255 0 0 0 0
4.04 4.4000001 9.5799999 0 0 255 0 0 0 0
1.27 0.56 6.6399999 0 0 255 0 0 0 0
9.9799995 2.6500001 4.1300001 0 0 255 0 0 0 0
0.88 0.20999999 7.0300002 0 0 255 0 0 0 0
2.8399999 0.059999999 5.98 0 0 255 0 0 0 0
9.3100004 4.1100001 3.71 0 0 255 0 0 0 0
7.96 7.3899999 5.9000001 0 0 255 0 0 0 0
4.1199999 2.8 7.04 0 0 255 0 0 0 0
5.6399999 1.2 6.9099998 0 0 255 0 0 0 0
7.8099999 4.27 3.71 0 0 255 0 0 0 0
5.4299998 0.33000001 8.6700001 0 0 255 0 0 0 0
5.9899998 0.059999999 8.3900003 0 0 255 0 0 0 0
4.02 0.27000001 3.3 0 0 255 0 0 0 0
1.28 7.3299999 5.4499998 0 0 255 0 0 0 0
3.55 9.5100002 8.9200001 0 0 255 0 0 0 0
2.6199999 7.9000001 5 0 0 255 0 0 0 0
1.5 2.01 9.9099998 0 0 255 0 0 0 0
5.9899998 1.98 1.51 0 0 255 0 0 0 0
9.8100004 1.6900001 4.6700001 0 0 255 0 0 0 0
0.92000002 8.9399996 9.1099997 0 0 255 0 0 0 0
7.8000002 5.5999999 5.3400002 0 0 255 0 0 0 0
7.7399998 5.96 4.9899998 0 0 255 0 0 0 0
8.29 3.03 0.50999999 0 0 255 0 0 0 0
7.8800001 8.2799997 1.84 0 0 255 0 0 0 0
1.61 3.6600001 0.28999999 0 0 255 0 0 0 0
3.05 3.96 6.3200002 0 0 255 0 0 0 0
3.3299999 4.3400002 6.6799998 0 0 255 0 0 0 0
8.4300003 6.6700001 3.8 0 0 255 0 0 0 0
4.9299998 1.75 3.27 0 0 255 0 0 0 0
1.4400001 2.6500001 1.98 0 0 255 0 0 0 0
5.8800001 3.3499999 0.33000001 0 0 255 0 0 0 0
1.5700001 2.28 1.16 0 0 255 0 0 0 0
6.1199999 5.98 7.6900001 0 0 255 0 0 0 0
1.5 6.0700002 0.63999999 0 0 255 0 0 0 0
7.3400002 1.75 5.3200002 0 0 255 0 0 0 0
2.51 2.05 5.3000002 0 0 255 0 0 0 0
5.23 7.7199998 4.8800001 0 0 255 0 0 0 0
7.3200002 2.55 2.52 0 0 255 0 0 0 0
3.8 0.050000001 2.04 0 0 255 0 0 0 0
2.3699999 9.1000004 2.9100001 0 0 255 0 0 0 0
5.1199999 4.7800002 7.1900001 0 0 255 0 0 0 0
5.3200002 8.6999998 7.52 0 0 255 0 0 0 0
5.1100001 0.93000001 9.5 0 0 255 0 0 0 0
9.21 0.69999999 0.19 0 0 255 0 0 0 0
3.03 8.8400002 2.0899999 0 0 255 0 0 0 0
7.6500001 6.1300001 2.6800001 0 0 255 0 0 0 0
6.8800001 6.7399998 9.1499996 0 0 255 0 0 0 0
4.6500001 1.6900001 7.0999999 0 0 255 0 0 0 0
4.6199999 6.1199999 9.6300001 0 0 255 0 0 0 0
0.0099999998 8.4200001 0.49000001 0 0 255 0 0 0 0
4.3699999 1.39 4.7199998 0 0 255 0 0 0 0
9.5100002 4.3299999 3.4200001 0 0 255 0 0 0 0
0.95999998 5.52 2.1099999 0 0 255 0 0 0 0
2.5 2.5699999 4.5100002 0 0 255 0 0 0 0
2.6400001 1.8200001 6.5 0 0 255 0 0 0 0
0.059999999 3.97 5.3600001 0 0 255 0 0 0 0
6.0500002 5.77 5.6100001 0 0 255 0 0 0 0
0.67000002 8.1000004 3.0899999 0 0 255 0 0 0 0
5.23 1.99 3.5999999 0 0 255 0 0 0 0
6.02 1.84 6.1999998 0 0 255 0 0 0 0
2.05 5.5500002 1.59 0 0 255 0 0 0 0
7.2800002 9.0500002 6.6700001 0 0 255 0 0 0 0
6.7399998 5.5 4.75 0 0 255 0 0 0 0
8.1199999 2.9000001 1.1900001 0 0 255 0 0 0 0
8.8000002 1.25 0.31999999 0 0 255 0 0 0 0
6.5900002 3.6500001 5.8800001 0 0 255 0 0 0 0
3.9100001 1.8 7.5100002 0 0 255 0 0 0 0
2.51 8.4700003 9.7600002 0 0 255 0 0 0 0
1.15 5.1599998 2.1900001 0 0 255 0 0 0 0
5.04 4.5500002 4.3200002 0 0 255 0 0 0 0
8.6499996 5.6700001 4.8400002 0 0 255 0 0 0 0
9.0200005 0.14 3.3800001 0 0 255 0 0 0 0
6.8499999 7.21 7.3400002 0 0 255 0 0 0 0
8.4200001 8.6899996 1.83 0 0 255 0 0 0 0
0.51999998 0.76999998 1.54 0 0 255 0 0 0 0
4.1199999 9.2700005 4.5500002 0 0 255 0 0 0 0
8.29 5.3299999 1.85 0 0 255 0 0 0 0
5.3099999 3.0599999 4.29 0 0 255 0 0 0 0
5.1199999 6.0900002 3.6900001 0 0 255 0 0 0 0
9.9099998 6.0300002 8.6599998 0 0 255 0 0 0 0
7.8400002 7.25 6.6700001 0 0 255 0 0 0 0
7.29 7.1599998 3.3 0 0 255 0 0 0 0
4.5599999 8.3800001 3.3499999 0 0 255 0 0 0 0
4.3299999 1.54 9.1000004 0 0 255 0 0 0 0
4.5999999 5.23 7 0 0 255 0 0 0 0
4.0799999 6.54 2.6400001 0 0 255 0 0 0 0
6.29 4.1799998 2.6300001 0 0 255 0 0 0 0
5.6799998 2.4300001 8.3900003 0 0 255 0 0 0 0
4.21 6.46 9.0200005 0 0 255 0 0 0 0
3.8499999 1.02 9.7299995 0 0 255 0 0 0 0
9.2700005 6.0999999 9.9200001 0 0 255 0 0 0 0
7.6199999 8.75 0.97000003 0 0 255 0 0 0 0
0.18000001 2.3900001 5.5500002 0 0 255 0 0 0 0
4.4699998 2.5699999 7.8600001 0 0 255 0 0 0 0
2.95 6.3200002 3.4400001 0 0 255 0 0 0 0
0.34999999 9.8000002 6.3400002 0 0 255 0 0 0 0
9.4099998 4.5 8.3100004 0 0 255 0 0 0 0
9.21 8.8699999 5.8299999 0 0 255 0 0 0 0
4.27 4.6700001 3.46 0 0 255 0 0 0 0
9.4399996 1.45 7.5500002 0 0 255 0 0 0 0
6.5700002 0.1 8.9399996 0 0 255 0 0 0 0
0.050000001 1.89 6.1399999 0 0 255 0 0 0 0
9.2200003 0.07 3.28 0 0 255 0 0 0 0
9.6899996 3.8399999 0.49000001 0 0 255 0 0 0 0
2.8900001 3.1400001 1.86 0 0 255 0 0 0 0
8.4200001 0.72000003 6.5300002 0 0 255 0 0 0 0
9.6899996 9.0100002 6.9200001 0 0 255 0 0 0 0
4.25 3.75 0.81 0 0 255 0 0 0 0
6.9299998 5.8800001 9.0699997 0 0 255 0 0 0 0
5.8899999 7.8699999 9.0600004 0 0 255 0 0 0 0
8.1800003 3.4400001 4.6900001 0 0 255 0 0 0 0
7.02 9.1700001 8.7399998 0 0 255 0 0 0 0
6.1399999 5.96 5.3400002 0 0 255 0 0 0 0
3.29 4.3899999 9.0200005 0 0 255 0 0 0 0
7.4000001 4.5700002 4.8899999 0 0 255 0 0 0 0
7.9299998 3.3399999 7.9200001 0 0 255 0 0 0 0
5.1799998 9.4899998 2.6800001 0 0 255 0 0 0 0
6.3099999 1.0700001 4.8699999 0 0 255 0 0 0 0
7.21 4.1900001 0.28 0 0 255 0 0 0 0
2.48 3.1099999 3.1300001 0 0 255 0 0 0 0
9.5 9.7700005 0.11 0 0 255 0 0 0 0
7.7399998 0.88999999 2.6900001 0 0 255 0 0 0 0
2.26 6.9000001 5.5999999 0 0 255 0 0 0 0
5.5500002 2.46 5.8400002 0 0 255 0 0 0 0
0.67000002 8.5699997 4.8800001 0 0 255 0 0 0 0
1.92 2.77 4.4000001 0 0 255 0 0 0 0
3.4300001 8.8999996 7.23 0 0 255 0 0 0 0
0.64999998 3.8099999 7.4899998 0 0 255 0 0 0 0
7.3400002 4.6199999 9.4200001 0 0 255 0 0 0 0
2.3699999 7.9400001 7.8299999 0 0 255 0 0 0 0
3.1800001 7.6799998 1.71 0 0 255 0 0 0 0
5.0500002 1.9 5.1199999 0 0 255 0 0 0 0
1.13 1.74 2.1300001 0 0 255 0 0 0 0
2.45 1.27 7.7600002 0 0 255 0 0 0 0
9.4200001 8.25 8.4499998 0 0 255 0 0 0 0
